-0.665659 0.074688 0.041577
-0.797408 0.206365 -0.007973
-0.211268 0.134832 0.850592
0.124631 -0.102173 -0.043804
0.143229 -0.035201 -0.297815
-0.031609 -0.009224 -0.539686
0.958580 -0.030587 0.032477
-0.488319 0.115819 0.010887
-0.106976 0.047879 -0.084735
0.107242 -0.005750 0.351945
0.028775 -0.086534 -0.084993
-0.112285 0.018770 -0.786371
-0.756724 0.353496 0.008714
0.205950 -0.034446 0.251208
0.293168 -0.095118 -0.060473
-0.857021 0.433095 -0.002997
-0.569113 -0.034270 -0.046084
-0.010788 0.031330 0.089270
0.364984 0.061556 -0.076214
-0.689618 0.073605 0.043698
0.705938 -0.037138 0.081249
0.818291 0.071544 0.032520
0.041016 -0.003276 -0.390778
-0.143198 -0.099556 -0.002262
0.776546 0.067657 0.051109
0.669947 0.038218 -0.084882
-0.395098 0.101070 0.008704
-0.203000 -0.090478 -0.037754
-0.012017 -0.102176 -0.030350
-0.512008 0.006257 0.081975
-0.588583 0.087265 0.032199
0.469338 0.099248 -0.004421
-0.043358 0.003783 -0.502819
-0.853085 0.107001 -0.296936
-0.200550 -0.038910 0.085038
0.088931 -0.028665 -0.368100
-0.794142 0.088107 0.003866
-0.789106 0.249550 -0.011331
0.720990 -0.091825 -0.032157
0.812077 -0.058309 0.059709
0.325175 0.097522 -0.018988
0.257430 0.005571 -0.094650
0.030325 -0.062049 0.178744
0.346472 -0.070790 -0.258213
-0.466208 -0.029549 0.076071
0.736975 -0.057689 -0.070572
0.218167 -0.125421 0.265875
-0.798777 0.059750 -0.077571
-0.044724 0.096030 -0.026349
-0.695956 0.083113 -0.025378
-0.148561 0.031228 0.788315
-0.008293 -0.106045 0.002578
0.099720 -0.012643 -0.279398
0.030184 -0.094727 -0.066897
0.619029 -0.078681 0.055418
-0.248296 -0.018562 -0.092379
0.831777 -0.070493 -0.048828
0.108122 -0.010732 0.292239
0.538706 -0.090154 -0.038453
-0.572794 -0.038958 0.036145
-0.022042 0.017175 0.615594
-0.757241 0.096602 -0.009129
-0.114255 0.074159 0.063771
-0.197474 -0.011978 0.091958
-0.773774 0.069489 0.156898
-0.868328 0.395095 -0.000958
0.335349 0.088288 0.043315
-0.363054 -0.089756 -0.004558
-0.404190 -0.021339 -0.087523
-0.673475 0.219674 0.012515
0.322424 -0.047615 -0.196882
0.175926 0.007893 0.092962
0.055882 0.004092 -0.477947
-0.865244 0.112086 -0.326471
-0.268101 -0.084799 -0.047251
0.025869 -0.032014 0.181504
-0.217461 -0.085878 0.045480
-0.676251 0.054725 0.062305
-0.119564 -0.034757 0.086530
0.046547 -0.042750 -0.321187
0.141065 -0.106874 -0.016102
0.710146 0.035281 0.081729
0.107105 -0.062378 -0.140687
0.069857 -0.034261 0.111199
0.824811 -0.071495 -0.013609
0.255687 0.091393 -0.037988
0.066994 -0.106060 -0.019211
0.072194 -0.091576 -0.085559
-0.105369 0.010389 -0.712786
0.558169 0.035620 -0.089316
-0.056180 0.023150 0.699281
-0.734053 0.125064 -0.012666
-0.164244 0.057756 -0.829698
-0.808001 0.096652 -0.273498
-0.512250 -0.018333 -0.075931
-0.031356 0.004299 0.496122
0.305590 -0.030070 0.241566
-0.648782 0.034025 0.055996
0.078521 -0.151328 -0.148864
0.149911 -0.019204 -0.328973
0.166846 -0.120315 -0.240719
-0.551245 -0.037223 -0.049315
-0.254338 0.098807 0.007007
0.002977 -0.049024 -0.213673
-0.049304 0.034746 0.088124
-0.050771 -0.004375 -0.448068
0.312480 -0.131040 0.220002
0.383063 0.073251 0.064937
-0.807218 0.059469 0.060661
0.286401 -0.101508 -0.033178
0.136316 -0.035252 0.300883
0.281625 -0.066433 0.185163
-0.711463 0.075064 0.062733
0.387557 -0.080258 -0.055141
-0.787735 0.065348 -0.122435
0.607245 -0.016059 -0.092808
0.134492 -0.060354 0.157425
0.881589 -0.052684 -0.048864
0.095015 -0.056076 -0.167785
0.626533 0.096397 0.019766
-0.701757 0.075046 -0.058971
-0.520783 -0.061745 0.008100
0.033575 -0.008207 -0.354435
-0.053811 0.017106 -0.616839
-0.745226 0.288522 0.012733
0.044535 -0.022938 0.422407
-0.055987 0.012586 0.578455
0.367142 0.090028 0.039507
-0.353676 0.090204 0.040185
0.348823 -0.046514 -0.207528
-0.043854 0.018689 -0.689945
-0.024332 -0.024241 0.279140
0.657440 -0.050911 0.077730
0.153166 0.016124 0.092228
0.208547 -0.130561 0.216233
-0.796975 0.077159 -0.108304
0.096260 -0.015374 0.255809
0.204119 -0.069793 0.185469
0.540285 -0.092655 0.031272
-0.450583 0.045244 0.082613
0.640232 -0.090446 0.035930
-0.289909 -0.038854 -0.085767
-0.690535 -0.014113 0.018930
-0.406047 -0.017598 0.087176
0.078713 -0.107499 -0.004604
0.251445 0.029153 0.090000
-0.151093 -0.094220 -0.029070
0.255106 -0.122592 -0.273812
0.267234 -0.035947 0.255178
0.310939 -0.070290 -0.186171
-0.759549 0.058133 -0.085855
0.500844 0.071783 -0.067964
0.089454 0.043416 0.085155
-0.799119 0.090732 0.188800
-0.881457 0.108673 0.331863
-0.122758 0.082645 -0.054185
0.009294 -0.044506 -0.113762
0.629922 0.098401 0.003612
-0.776398 0.288701 0.012203
-0.825255 0.090222 -0.192384
0.578077 0.058238 0.076989
0.072859 -0.092437 -0.031856
0.148254 0.061121 -0.076510
-0.037012 0.001999 -0.636933
0.366358 0.095608 -0.027885
0.211626 -0.063060 -0.145260
-0.761539 0.066621 0.140105
-0.474604 0.124821 0.002219
0.214117 -0.133777 0.235434
0.891343 -0.083415 -0.016786
0.197204 -0.113321 -0.196136
0.303384 -0.097794 0.040741
-0.464080 -0.072840 0.011224
0.041410 -0.151768 0.104011
-0.419790 -0.069441 0.044086
0.318556 -0.054424 -0.276934
-0.197769 0.110162 -0.843929
-0.052466 -0.012926 0.473570
0.448448 0.010274 0.092756
-0.821305 0.095367 0.225485
-0.683519 0.180276 -0.016716
-0.063275 -0.073568 -0.078818
0.409648 0.086971 0.045569
0.559587 -0.070981 -0.066147
0.340556 -0.083534 0.284723
0.084213 -0.106058 -0.022256
0.025299 -0.028155 -0.213005
0.116803 -0.067172 -0.122624
-0.635414 0.235383 -0.004698
0.352136 0.087166 0.045247
0.059720 -0.018414 -0.256778
0.029833 -0.013238 0.500622
0.977836 0.006437 0.001923
-0.793819 0.069753 0.155427
-0.678325 -0.007801 0.030795
0.112944 -0.006227 -0.379568
-0.658704 0.252485 -0.007613
0.063646 -0.030862 0.155876
0.527347 0.020986 -0.093139
-0.090681 -0.006779 0.479057
-0.107735 0.005869 -0.599669
-0.089324 0.001879 -0.524912
0.246253 -0.050922 0.182187
0.046726 -0.023018 -0.422903
-0.034181 -0.005517 -0.576660
-0.124502 -0.034085 -0.088257
-0.371886 0.044431 -0.087336
-0.170626 -0.026130 -0.090787
-0.777173 0.088546 -0.160634
-0.241384 0.000175 0.093323
0.352743 -0.086318 0.051513
-0.175969 0.023342 0.799913
0.251996 -0.095113 0.182763
-0.833601 0.091152 0.281005
-0.655436 0.063192 -0.062076
-0.089005 0.009439 0.706457
0.345677 0.050517 0.081742
0.084267 -0.034615 -0.321781
0.163898 0.045325 0.084496
0.055294 -0.029861 -0.173072
-0.460614 0.099033 0.019749
0.307202 -0.108786 -0.009569
-0.137772 0.029449 -0.768458
0.591950 -0.070890 0.064762
-0.210934 0.120347 -0.853749
0.318468 0.093028 -0.034183
0.647820 0.097650 0.004019
-0.733277 0.072943 0.033037
-0.328884 0.000071 0.093198
-0.627927 0.223112 0.005076
0.181569 0.074253 -0.065137
-0.812633 0.093500 -0.202970
0.040872 -0.018714 -0.269299
-0.393753 -0.083165 -0.020814
-0.083275 0.017427 0.755829
-0.234417 -0.071267 -0.065829
0.890386 -0.001764 -0.057079
-0.032830 0.001793 -0.479888
-0.165420 -0.099632 0.000229
0.225160 -0.023600 0.169244
-0.068155 -0.054309 -0.085527
0.189316 -0.104874 0.027901
-0.186817 -0.019984 -0.092114
-0.158594 -0.068629 0.067158
-0.654221 0.067930 0.055288
-0.100031 -0.000650 -0.584508
-0.069891 -0.009669 -0.093778
0.254537 -0.131958 0.227454
0.648294 -0.069373 0.065119
-0.072162 0.001350 -0.632260
0.050640 0.000809 0.422865
0.289392 -0.131602 0.221171
-0.024030 0.003327 0.635857
0.070157 -0.098623 -0.177366
-0.152475 -0.041651 0.084053
-0.483556 0.092732 -0.032395
-0.739708 0.304617 0.011531
-0.644452 0.033986 -0.058493
0.515325 -0.053165 -0.079734
0.353714 0.073697 -0.065850
0.113914 0.073128 0.065095
0.241171 0.042520 0.085464
-0.797506 0.087042 0.167236
0.231962 -0.022388 0.122964
-0.818984 0.371960 0.010261
-0.398332 0.061622 0.075429
0.083210 -0.036828 -0.301241
-0.403443 -0.068305 0.050285
0.180790 -0.017785 0.214841
0.545868 0.001622 0.093452
-0.029784 -0.020504 0.310190
0.154343 -0.072978 -0.111042
0.133500 -0.064293 0.140138
0.064240 -0.097897 -0.124349
0.057212 -0.034179 -0.330112
-0.152356 -0.070672 -0.066490
-0.333189 -0.038423 -0.084750
-0.780270 0.054759 0.055300
0.699239 0.070210 -0.062715
-0.640898 0.019575 0.056755
-0.618286 0.052219 -0.061028
0.639158 -0.026973 0.087671
0.533767 0.091590 -0.037552
0.428731 -0.097619 -0.015283
0.337195 -0.130643 0.232584
-0.048570 -0.097736 0.030533
-0.138802 -0.097704 0.013262
-0.128839 0.038961 0.821380
0.868534 0.042005 -0.048346
-0.828198 0.090499 -0.267317
-0.056346 0.098604 0.008812
0.901500 -0.073146 0.028081
-0.023815 0.010037 -0.656626
0.202581 0.075230 -0.063882
-0.814215 0.305402 -0.009994
-0.625244 -0.024454 0.034188
-0.219292 0.101087 0.840287
-0.626727 0.125793 -0.018236
0.030403 -0.066659 0.096926
0.652512 -0.083495 0.048094
-0.678686 -0.005181 -0.034847
-0.478132 -0.039923 0.067229
0.065134 -0.106632 0.015139
-0.155542 -0.097844 -0.013870
-0.611160 0.113782 -0.018745
-0.013924 0.010267 0.535777
0.719227 0.066993 -0.063597
-0.200190 0.042915 -0.825773
0.260289 -0.069552 -0.285936
0.596881 -0.102942 0.007565
0.952852 0.015842 0.013349
-0.211432 0.016715 -0.093660
0.015166 -0.018041 0.293080
0.410214 -0.098528 -0.009583
-0.724967 0.060037 0.099090
0.759477 0.077166 -0.044544
-0.008307 0.011045 -0.542331
0.170089 -0.035090 -0.278581
0.170438 -0.113754 0.251039
0.133539 -0.071317 -0.110017
-0.004064 0.014423 -0.589824
0.472155 -0.014262 0.091629
-0.164928 0.092099 0.034942
-0.723417 0.301819 -0.011552
0.099981 -0.022180 -0.401427
0.111874 -0.025630 0.154686
-0.104076 -0.033968 0.430716
0.676128 -0.055023 0.074392
0.207880 0.041984 -0.087135
0.209973 -0.082757 -0.283961
-0.760864 0.233661 -0.014025
0.816353 -0.089723 -0.001664
-0.042278 0.089776 -0.041545
0.325177 -0.082041 -0.287687
-0.348481 -0.033017 -0.086536
-0.829165 0.092163 0.211621
0.305746 0.078342 0.058360
-0.079879 -0.093343 -0.033946
0.307403 -0.093382 -0.289662
0.495352 0.042178 0.085582
-0.501993 0.078271 0.055925
0.013925 0.084494 0.049679
0.346334 -0.070110 0.076549
0.226717 -0.036583 -0.255945
-0.719679 0.125446 0.012660
-0.298583 0.023245 -0.092951
0.627372 0.091044 0.035412
0.944553 -0.006487 -0.040233
-0.756675 0.076138 -0.084358
-0.826800 0.099647 0.252278
0.221434 -0.040877 0.256012
-0.035841 0.015225 0.590656
-0.499127 -0.052812 -0.049254
0.357908 -0.093969 -0.278723
-0.344840 0.099599 -0.000224
-0.801892 0.079559 0.128038
-0.309153 -0.013451 -0.092866
0.667325 -0.096912 0.017555
0.087460 -0.023598 0.402867
0.287436 -0.026987 0.232400
0.489415 0.086063 -0.048562
-0.628115 -0.030518 -0.027649
0.455163 -0.013541 -0.093219
-0.518465 0.137505 0.001055
0.174114 -0.070353 0.122724
0.344825 -0.097431 0.015606
0.029106 0.008698 0.528032
0.483290 -0.042172 0.083866
-0.634910 0.070185 -0.048187
0.106887 -0.024269 0.171152
0.008365 -0.014972 0.091651
-0.075325 -0.010153 0.489061
0.821766 -0.113681 -0.018919
-0.527633 0.049414 -0.075946
0.043455 -0.026930 0.386158
-0.748057 0.088985 -0.168912
0.170069 0.061105 -0.076521
0.683140 -0.089929 -0.037698
-0.080694 0.057031 0.077812
0.703205 -0.098042 -0.012208
-0.619838 0.201111 -0.008928
0.244118 -0.130483 0.215045
0.328372 -0.037497 -0.090651
-0.134627 0.031094 0.778672
0.835370 0.069516 -0.029905
-0.793519 0.096179 0.224678
0.527203 -0.088750 0.040005
-0.215962 -0.021528 -0.091826
0.010265 -0.036098 0.280035
-0.417742 0.061466 0.074878
-0.110173 0.009702 0.699399
0.035359 -0.140714 -0.104327
0.521531 0.090107 0.039334
-0.853027 0.110529 -0.313145
-0.065406 0.075238 0.062386
0.234929 -0.101666 0.045026
0.047138 -0.025754 0.210926
-0.445759 0.082027 0.053010
0.251413 -0.072114 -0.106694
0.852688 0.030555 -0.059012
-0.060694 0.005565 -0.529721
-0.062739 0.023358 -0.681301
-0.791236 0.051963 -0.033081
-0.081795 0.081295 0.054518
0.148521 0.059098 0.076403
0.019063 -0.001216 0.418977
-0.551293 -0.007015 -0.071666
0.546707 -0.078409 -0.057456
0.020678 -0.037924 0.101609
0.266036 -0.030023 0.132178
0.827381 -0.087238 0.014975
0.294412 -0.006961 0.092750
-0.443442 0.095195 0.026294
0.240520 -0.023603 -0.137724
-0.418682 -0.014069 -0.088553
-0.480903 0.084872 0.047411
0.615430 -0.098299 0.012309
-0.208967 0.038890 -0.088203
-0.529223 0.076691 -0.056012
0.651548 -0.017346 -0.090539
0.397681 0.064693 -0.074044
0.248720 -0.095511 -0.075632
-0.179779 0.044335 -0.823552
0.178420 -0.017277 -0.226790
0.002404 -0.007485 -0.383039
0.026709 -0.061718 -0.108403
-0.000976 -0.053277 0.134000
-0.144166 0.027282 0.761334
0.215851 -0.100930 -0.050436
0.088441 -0.025173 0.178807
0.185925 -0.059396 0.175352
0.045100 -0.025080 0.403792
0.238808 -0.101949 -0.044997
0.540093 0.045519 0.084429
-0.089129 -0.059858 0.078402
0.279522 -0.094132 -0.070600
0.027898 0.003878 0.459800
-0.478345 -0.023979 -0.079245
-0.735617 0.072205 -0.038661
-0.159608 0.028314 -0.777178
-0.057327 -0.004299 -0.577452
0.569670 0.076570 -0.062153
0.232866 -0.085747 -0.287236
0.847189 0.071034 0.017315
0.154158 -0.069816 -0.212743
0.160419 -0.054893 0.181173
-0.605186 0.083338 0.036142
-0.012969 0.090572 -0.039802
0.255214 -0.090607 0.081916
-0.143211 0.036975 -0.088861
0.010313 0.096014 0.024940
-0.740546 0.282025 -0.014286
0.152117 -0.101198 0.252835
0.389205 -0.068535 -0.068722
0.082187 0.028626 0.090177
0.243663 -0.132106 -0.233111
-0.048329 -0.001455 -0.467837
0.242457 -0.064276 -0.133139
0.087799 -0.006973 -0.336730
0.708514 -0.089998 0.035400
0.336582 0.033016 0.088704
-0.698496 0.135165 0.014854
0.294898 -0.070420 0.286516
0.092932 -0.090160 0.083661
-0.480900 -0.068043 -0.022954
0.742808 -0.076804 -0.053812
-0.608832 0.003762 0.061034
0.534562 0.099585 -0.000185
0.155149 0.085690 0.047695
0.173320 -0.019242 -0.184631
-0.260656 0.096560 0.022293
0.139860 -0.087135 0.255887
0.328686 -0.077061 -0.078403
0.074606 -0.039988 -0.261671
-0.780515 0.059593 -0.087631
-0.367059 0.059957 0.077223
0.009809 -0.032657 -0.192383
0.413740 -0.094511 -0.028385
0.068052 -0.015720 -0.460955
-0.085679 0.028146 -0.739509
0.193025 -0.097306 -0.281672
0.304311 0.025635 0.090764
0.146863 -0.019138 0.194186
0.007344 0.004053 0.093294
0.046387 -0.099988 -0.121788
-0.183530 0.060594 -0.076869
-0.087797 -0.008153 -0.093996
0.097523 -0.098970 -0.060872
0.190816 -0.015476 -0.100522
-0.010748 0.074961 0.062741
-0.104775 0.031804 -0.794211
-0.331722 0.064067 0.073731
0.367982 -0.072532 -0.066946
0.062079 -0.112855 0.204632
-0.062706 0.007895 -0.688838
0.124558 -0.008368 -0.326635
-0.076280 0.006029 0.676711
-0.687678 0.057915 0.075453
0.099111 -0.008454 -0.318629
-0.052466 0.002820 0.646837
-0.008346 -0.060830 0.101157
0.585776 -0.081953 0.051351
-0.831140 0.403486 -0.011319
0.000144 0.052323 0.080711
0.102197 0.096275 -0.025141
-0.136256 -0.018168 0.090967
-0.758204 0.249525 0.012963
0.252549 -0.027413 0.224875
-0.728095 0.081873 0.163196
0.011738 -0.017405 -0.301993
-0.091021 -0.008279 0.495446
-0.760019 0.082922 -0.122614
-0.721193 0.200340 -0.016056
0.787358 -0.088553 -0.034982
-0.340334 0.054787 -0.081865
0.357916 -0.086825 -0.192318
0.033422 -0.015569 0.482248
-0.066409 0.013747 0.594569
0.165641 -0.119186 0.234052
-0.162586 0.039803 -0.832882
-0.096459 -0.018498 0.430309
-0.276494 0.045306 -0.086189
-0.026137 -0.007846 0.554689
0.802595 -0.012141 0.075047
0.347920 -0.109434 -0.279641
0.152897 0.096871 -0.022198
0.017455 -0.057165 -0.124373
0.202729 0.098031 0.019933
0.165862 -0.024209 -0.123867
0.080140 -0.061940 0.163359
0.295365 -0.094401 0.181141
-0.006439 0.010208 -0.624571
-0.026108 0.037682 -0.088621
0.286654 -0.108768 0.284025
-0.193071 0.045306 0.833490
-0.031202 -0.009864 -0.093749
0.277740 0.081248 0.054579
-0.002930 0.013292 -0.608992
-0.000364 -0.043146 -0.291901
-0.476547 0.114640 -0.011508
0.577816 -0.005080 -0.094337
-0.880223 0.108641 -0.344946
-0.421283 0.084130 -0.051888
-0.740065 0.080401 -0.101329
0.029804 -0.046828 0.292515
0.917883 -0.072053 0.017434
-0.726934 -0.000841 0.018079
0.315184 -0.116998 0.278696
0.683698 -0.002537 -0.090604
0.236766 -0.030426 -0.179421
0.242866 -0.067960 -0.284421
0.350449 0.094458 -0.030691
0.045871 -0.048539 -0.212872
0.151300 -0.068709 0.126186
-0.589419 0.026489 0.069089
0.892463 -0.061480 -0.004900
-0.061865 -0.001301 -0.483273
-0.809181 0.169436 -0.000377
-0.023653 0.095337 -0.028546
0.232004 -0.035702 0.197507
-0.076484 0.037767 -0.088591
-0.506306 0.070807 -0.065432
0.382531 0.059696 -0.077482
0.102514 -0.096893 0.070153
0.708959 -0.069261 -0.064607
0.610620 0.006761 -0.094413
0.240608 -0.085204 -0.184445
0.183915 0.089346 0.040999
-0.184047 0.100267 -0.843450
-0.716533 0.031240 -0.040560
-0.637135 0.051595 -0.057324
0.375208 -0.098584 0.007700
-0.349119 -0.047486 -0.079349
-0.045827 -0.025586 0.329368
0.056718 0.002265 0.438783
0.179881 -0.120438 0.205857
-0.854661 0.100029 -0.258333
-0.289474 0.001508 -0.094975
0.266688 -0.106997 0.005998
-0.330203 -0.057582 0.071700
0.969300 0.006940 0.015814
0.097142 -0.027532 -0.153121
0.852124 0.063588 0.031674
0.091881 -0.018826 0.228941
-0.019027 -0.036594 0.419219
-0.713434 0.079518 0.130970
-0.222420 0.080982 0.054925
-0.158310 0.093541 -0.032929
0.940453 0.022394 -0.008790
0.078851 -0.066906 -0.157247
-0.444694 0.107017 -0.012225
0.857190 -0.080126 0.017948
-0.779134 0.189289 -0.010297
0.098991 0.057885 0.077230
0.468001 -0.090816 -0.037022
0.033242 -0.118973 0.110128
0.547942 0.071697 -0.068048
-0.863244 0.090146 -0.236035
-0.831340 0.361688 0.008380
0.475862 -0.053610 -0.079434
0.354062 -0.101782 -0.208811
0.684209 0.053138 0.075450
0.265256 0.056140 -0.079906
-0.042844 -0.067446 0.086403
-0.270938 -0.026072 0.089106
-0.832312 0.330646 0.006538
-0.151240 0.017843 -0.764988
0.018296 0.099360 -0.003381
-0.127273 0.039716 -0.822245
-0.029361 0.002988 0.093386
-0.055736 0.094926 0.028063
-0.010315 -0.008619 0.383248
0.440651 -0.004512 0.092902
0.152283 -0.109763 -0.233052
-0.777800 0.290023 -0.013615
0.006761 -0.032591 0.093219
0.057707 -0.045107 0.217620
-0.584141 -0.028624 0.045763
0.300364 -0.024402 0.092992
0.696871 0.019930 -0.088391
0.693753 -0.023359 0.085884
-0.425479 0.066358 -0.072595
-0.721041 0.264518 0.012886
0.141346 -0.087571 -0.214806
-0.041827 0.020997 0.661561
0.289334 -0.080891 -0.182704
0.002717 -0.033691 -0.441324
-0.753732 0.072890 0.066059
0.164745 -0.103357 0.035996
-0.744190 0.214942 0.013499
-0.130623 0.070696 0.067529
-0.046250 -0.025943 0.410146
-0.106760 0.005424 -0.566027
0.005199 -0.103984 -0.028865
-0.343575 -0.089716 -0.017034
0.342277 -0.093251 -0.247203
-0.781322 0.385218 0.008411
0.301987 0.075828 -0.063115
0.010231 -0.023765 0.448577
0.017408 -0.025022 -0.391793
0.454017 0.098929 0.005884
-0.080157 -0.092803 0.033742
0.277554 -0.126941 -0.205094
0.189972 -0.030726 -0.261059
-0.158756 -0.080591 -0.054725
0.056897 -0.041041 0.236718
0.108005 -0.029752 0.351669
0.019094 -0.014764 -0.493936
-0.435666 0.022164 -0.090341
0.092598 0.043189 -0.086719
-0.724219 0.056829 -0.080913
-0.424710 0.108960 0.005840
-0.816509 0.073362 -0.160638
-0.653286 0.114514 -0.017855
0.302223 -0.010001 -0.093866
0.082571 -0.011900 -0.294378
-0.023786 -0.016360 0.460148
0.606114 -0.079978 -0.055487
0.120755 -0.007685 -0.362406
-0.561159 0.119129 -0.016945
-0.684379 0.252665 0.010583
0.059859 -0.006733 0.497440
0.160703 -0.014380 -0.263808
-0.234973 -0.096664 -0.020335
-0.371036 0.026728 0.091345
0.145076 -0.052808 0.250678
-0.486934 -0.068253 0.016286
0.507487 -0.098665 -0.008603
-0.848880 0.082803 -0.194767
0.011610 0.002197 0.587624
0.027270 -0.024921 -0.405103
0.326637 -0.126945 0.205676
-0.079693 -0.086834 -0.053263
-0.750813 0.055478 0.073073
0.039516 0.002910 0.093393
-0.038362 -0.050137 -0.205177
-0.736370 0.198740 0.013841
0.275149 -0.052307 0.194226
0.279358 -0.121921 -0.275378
-0.746445 0.066236 -0.131722
0.200990 -0.105308 -0.027045
0.683843 0.095053 -0.015379
-0.011721 -0.013647 -0.093211
0.433497 0.043432 -0.086635
-0.032836 0.009902 0.669167
0.224915 -0.071041 0.114517
-0.000940 -0.091562 0.069532
0.244160 -0.032757 -0.254061
-0.075141 0.009486 -0.705191
-0.482378 0.051266 0.078825
-0.644977 0.149308 -0.016731
0.285485 -0.029171 -0.225255
0.817294 0.060727 0.047375
0.214615 -0.101321 0.046862
-0.720622 0.162986 -0.015674
-0.224787 0.030770 -0.090944
-0.710744 0.077161 -0.077071
-0.194501 -0.069382 -0.067922
0.281253 -0.034126 0.216460
0.037020 -0.125069 -0.167826
0.308177 -0.053424 -0.099740
-0.112144 -0.089674 -0.039492
-0.036838 -0.004338 -0.437361
-0.321216 -0.089352 0.026013
-0.285046 -0.035850 0.085486
-0.018418 -0.048473 0.096972
0.075838 0.098730 0.007724
-0.633114 0.205535 0.009087
0.017902 -0.093994 0.068161
0.593828 -0.070740 -0.066415
0.055037 -0.031562 0.342836
0.130567 -0.081885 -0.093051
-0.819845 0.087859 -0.252447
0.824665 -0.128255 0.012072
0.057450 -0.163745 0.111935
0.866373 -0.025198 -0.061649
-0.066638 0.008426 0.554221
-0.680257 0.116007 0.015087
-0.845278 0.103615 -0.272223
0.972260 -0.021180 0.028498
0.187367 -0.099723 -0.056876
0.608267 0.053533 0.079946
0.484600 0.098780 0.007255
-0.652091 0.202978 -0.013325
-0.672859 0.072587 0.058175
0.659019 0.049112 0.079548
0.699663 0.003524 -0.089786
-0.822925 0.084179 0.242139
0.598346 0.036738 -0.088939
0.054869 0.047656 0.083376
-0.138747 0.022928 -0.719693
0.724864 0.076792 -0.051203
0.750056 -0.087529 0.037107
-0.031265 -0.033083 -0.443309
0.046517 -0.077808 -0.190579
-0.011836 -0.105227 -0.013215
0.272401 -0.088681 0.081074
-0.514990 -0.017333 0.074296
0.247314 -0.050546 0.271544
0.239419 0.058617 0.076731
-0.074095 -0.007568 -0.522858
0.236884 -0.052098 -0.272964
0.197526 0.107218 0.006623
0.312976 -0.040217 -0.261929
-0.470980 -0.068517 0.026067
0.721097 0.094168 0.002080
0.558708 0.088069 0.043747
-0.049004 0.005089 0.662709
-0.088346 -0.000457 -0.596689
0.532487 -0.015080 -0.092998
-0.253739 -0.058770 0.074467
0.124111 -0.051744 -0.202042
0.876538 0.062317 0.012538
0.601387 0.078159 0.058596
0.011754 -0.047390 0.214236
1.001773 -0.027399 0.006141
-0.074360 0.019658 0.648072
0.109025 -0.049656 -0.215871
-0.759437 0.022840 0.023699
0.397707 -0.038794 0.085080
0.776774 0.031845 0.073521
0.456379 0.006456 -0.094573
-0.032615 -0.025281 -0.344716
-0.084403 0.005340 0.545230
0.736527 -0.002107 0.084508
-0.100361 0.027197 0.727628
0.560746 -0.093815 0.028538
-0.037538 0.096883 0.020653
0.649843 0.029961 0.087369
-0.187643 0.084406 -0.846593
0.048468 -0.046671 -0.304745
-0.027569 0.052489 -0.082102
-0.202872 -0.094911 0.025956
-0.009390 -0.051935 0.313671
0.243886 -0.128972 0.259719
0.088987 -0.019873 0.421356
0.712721 0.014697 -0.087769
0.035948 -0.039078 0.107697
0.635724 -0.081068 0.051971
0.169208 -0.015807 -0.249882
0.271950 0.069194 -0.070468
0.180539 -0.031319 0.270899
-0.702792 0.154289 0.014875
0.043272 -0.092677 0.071227
0.419787 0.097107 0.019549
0.051931 -0.034618 0.137314
-0.740145 0.096953 0.009586
-0.476107 0.096336 0.023970
-0.729856 0.138194 0.012492
-0.362977 -0.067900 0.058629
-0.090004 -0.041181 0.084365
0.454503 -0.021007 0.090437
-0.277715 0.093925 0.030735
-0.302782 -0.059562 0.071759
-0.369472 0.059066 -0.079392
0.265901 -0.108619 -0.188011
-0.172841 0.068264 0.839487
0.244939 0.085664 0.047738
0.571364 0.062477 -0.075586
-0.158081 0.045406 -0.085954
0.600794 0.062318 -0.075692
0.239941 -0.023856 0.138997
0.683720 0.072402 0.059953
-0.802689 0.068775 -0.138738
-0.772746 0.075394 -0.181912
-0.246415 -0.035178 0.086379
0.053811 -0.010160 -0.325574
0.796808 0.081935 0.019740
0.373280 -0.084797 -0.048653
-0.327721 0.045093 -0.086753
0.369817 -0.033635 0.086932
-0.257652 -0.089227 0.038606
0.483430 0.071771 0.066490
-0.781094 0.315941 -0.013498
0.281765 0.096513 0.022478
0.494381 -0.029477 0.088258
-0.679070 0.085052 -0.025402
-0.055525 -0.036857 0.421492
-0.852015 0.091992 -0.215174
-0.008947 -0.020201 -0.297535
-0.102460 0.015556 0.758145
0.511645 0.082841 0.052422
0.178123 -0.102626 -0.041385
0.243280 -0.037774 -0.214581
-0.312712 0.031415 -0.091270
0.612376 0.029681 0.089631
-0.031685 -0.024225 0.446356
0.306720 -0.130102 -0.257627
-0.026933 0.007799 0.521207
-0.142395 0.020599 -0.093212
0.117068 -0.012388 -0.274770
0.005146 -0.031857 0.200717
-0.034801 -0.001506 0.608876
0.032727 0.000648 0.428144
0.106446 -0.030821 -0.346014
-0.124955 0.042889 -0.086823
0.389706 0.043468 -0.086623
0.781095 0.016055 0.077160
-0.008399 0.049982 -0.083534
-0.129374 -0.083249 -0.050898
0.884300 0.029264 0.048248
0.069504 -0.088273 0.026751
-0.361149 0.045187 0.085513
0.334292 0.090276 -0.040451
-0.646475 0.131776 -0.017887
0.108981 -0.082013 0.090514
0.743235 0.075361 -0.049922
0.067392 -0.027013 0.385493
0.128367 0.031939 -0.090551
0.825308 -0.052516 0.009348
0.122223 -0.037171 -0.293953
0.448313 0.093594 -0.032801
-0.050873 0.098620 -0.010166
-0.799462 0.071832 -0.160453
-0.650304 -0.026951 -0.015641
-0.283129 -0.054444 0.076242
0.744068 0.084116 0.033201
0.459771 0.057186 -0.079193
-0.649015 0.181108 0.013456
0.199838 -0.071256 -0.188002
0.665352 0.095879 -0.014757
0.608530 0.074876 -0.064219
-0.776588 0.224745 0.010593
-0.108783 0.016435 -0.767582
-0.814176 0.062283 -0.083361
0.186779 -0.101281 0.047075
0.285306 -0.065601 -0.186808
0.029515 -0.004250 -0.547505
0.764772 0.084816 0.026669
-0.652278 0.231971 -0.010003
-0.109632 0.029693 0.754561
0.273202 -0.041853 0.140607
-0.524766 0.016257 0.080743
-0.869352 0.106450 0.342604
0.407804 -0.091073 0.034980
-0.766421 0.208573 -0.012756
0.296421 -0.132092 -0.231672
-0.013882 0.086514 0.046328
-0.068212 -0.015697 0.399766
0.079080 -0.002404 -0.385611
-0.098282 0.029840 0.786826
0.627613 -0.094825 0.025992
0.126654 -0.022240 0.175311
0.414944 0.016032 0.092236
-0.590408 0.077277 0.046135
0.779925 0.046801 0.066462
0.105914 -0.006919 -0.334772
-0.607967 0.117175 0.017160
0.031607 -0.021890 -0.253010
-0.069483 0.031002 0.089380
-0.571823 0.128586 0.014202
-0.196508 -0.083096 -0.051127
-0.028259 -0.000601 -0.458351
0.676159 -0.098120 -0.011978
0.141467 -0.089688 0.084405
-0.111893 0.004764 0.594639
0.036375 0.007366 -0.508154
0.004019 -0.027675 -0.242312
-0.159923 -0.054948 0.077046
0.148243 -0.063088 0.148774
-0.017396 -0.035800 0.197138
0.007193 -0.061086 -0.105751
-0.309012 0.009791 -0.094428
0.688590 -0.038579 0.081621
0.246459 -0.018672 0.102700
-0.710103 0.080414 -0.125470
0.029818 -0.125432 -0.108449
-0.699283 0.175779 -0.016806
0.427739 0.089863 -0.041353
0.869786 -0.073231 -0.037076
0.090931 -0.060335 -0.148390
0.090011 -0.020915 0.212478
0.032381 -0.146163 -0.131627
0.542456 -0.097526 0.014380
-0.611968 -0.038177 0.010094
0.342333 -0.091563 0.248808
0.546367 -0.061585 -0.074035
0.148282 0.004011 -0.094785
-0.241348 0.002558 -0.094910
-0.020227 -0.003823 -0.588472
0.245384 -0.115929 -0.192707
0.700171 0.018615 0.086884
0.095526 -0.082446 -0.091671
0.018378 -0.028336 0.350810
-0.657234 0.052137 0.057225
-0.100851 0.012548 -0.734771
0.143802 -0.090788 -0.084527
0.028017 -0.024626 0.406594
-0.572729 -0.005439 0.065873
-0.066862 0.017592 -0.627715
0.290764 -0.110198 0.002543
-0.193921 0.047368 0.083540
-0.069881 0.091999 -0.036648
0.082212 -0.008506 0.092813
-0.512020 0.083898 -0.048120
0.056350 -0.001750 -0.397571
0.225161 0.068505 0.069648
-0.057990 -0.016392 -0.375138
-0.572393 0.092768 0.025755
0.166062 -0.063953 -0.259327
-0.382256 -0.011706 0.090569
-0.119690 0.012825 -0.728049
-0.416722 -0.053266 0.065690
-0.334076 0.016428 0.092462
0.044708 -0.098546 -0.160234
0.650693 0.089251 -0.038310
0.152975 -0.018730 -0.197100
0.120296 -0.007555 0.338643
0.288559 -0.124788 0.199887
0.108343 0.001872 -0.094963
0.264694 -0.043972 -0.151591
0.192294 -0.064094 0.272065
0.340021 -0.092364 -0.041871
-0.442896 0.042369 -0.085458
-0.760654 0.312800 -0.013670
0.213079 -0.127240 -0.209553
0.475254 -0.083818 -0.050048
0.795641 -0.148721 -0.011922
-0.476281 -0.012264 0.082392
-0.211699 -0.026950 0.089046
0.109618 -0.021834 -0.192085
0.214318 0.027213 -0.091948
0.061983 -0.121525 -0.103313
0.176240 -0.067224 -0.135834
-0.049770 -0.032871 0.087973
0.516493 0.072743 0.065550
-0.154280 0.099516 -0.001935
0.023316 -0.007303 -0.368588
0.612629 0.099175 0.002382
0.292720 -0.033780 0.103815
-0.003649 -0.097882 -0.050276
0.062083 -0.022159 0.423835
0.199134 -0.102207 -0.043621
-0.312117 0.077581 -0.061722
0.355038 0.049980 -0.083535
0.317468 -0.109197 -0.187336
-0.651347 0.015476 -0.054342
0.045029 -0.123371 -0.103227
-0.282055 -0.073803 0.059337
-0.275743 0.043031 0.085482
0.346880 -0.037149 0.086975
-0.061970 -0.010301 -0.412939
0.766258 -0.091408 -0.029595
-0.534881 -0.043631 -0.047397
0.050243 0.090650 -0.039630
-0.818215 0.062778 0.086512
0.056766 -0.079991 0.068192
0.555605 0.095979 0.025116
0.435735 0.074458 -0.064873
-0.737035 0.079107 0.095789
-0.687166 0.007412 -0.040665
-0.780942 0.151345 -0.007912
-0.019992 -0.051799 0.299564
-0.355449 -0.058130 0.069867
0.359554 0.062970 0.073763
0.190237 0.096503 -0.025606
-0.320977 0.099161 0.004034
0.941828 -0.029780 0.038647
-0.105365 0.005476 0.652293
0.322613 -0.048021 0.090068
0.183206 -0.019541 0.180473
0.048478 0.003601 0.454106
-0.253204 0.026035 0.090687
0.084372 0.011495 0.092648
-0.613350 0.071305 0.049381
0.052307 -0.027599 -0.193468
0.431961 -0.037315 0.085611
-0.667591 -0.017950 -0.024244
0.701786 0.080457 -0.049643
0.047940 -0.009085 0.508918
0.045926 -0.045832 0.297349
0.115109 0.042276 0.085548
-0.553334 0.130499 0.012131
0.064439 -0.084676 0.111080
-0.004539 0.010135 0.619071
-0.706102 0.323349 -0.002304
-0.233969 0.099539 -0.001721
0.330177 -0.033356 -0.235415
-0.117730 0.003673 -0.585867
0.349432 -0.107552 -0.192785
0.355051 -0.120455 0.257410
0.651379 -0.093194 -0.031001
0.266066 -0.075880 -0.096284
0.092350 -0.003729 0.371133
0.719286 -0.097142 -0.015895
0.095113 -0.003066 -0.388573
-0.302554 -0.092658 -0.020601
0.865585 -0.048892 0.053367
-0.101380 0.030901 -0.768696
-0.187458 -0.028278 0.088632
-0.377872 0.096373 -0.025495
-0.125769 0.028992 0.755866
-0.046756 -0.008844 -0.531583
0.673093 -0.033816 0.084007
-0.033531 -0.012230 -0.502133
0.190542 -0.022791 -0.121935
0.448474 -0.085212 0.046477
0.062420 -0.024819 0.403641
0.658444 -0.097396 -0.016497
0.255405 -0.098932 0.058718
0.378952 0.017809 -0.093561
-0.780246 0.272033 -0.013087
0.583052 -0.042776 0.083606
0.055191 0.076935 0.060191
-0.096143 0.022154 -0.782005
0.210431 -0.088902 -0.086870
-0.350990 0.097885 -0.017158
-0.010505 -0.033606 0.261059
0.021132 -0.024831 -0.093636
-0.036283 -0.036626 0.420115
-0.503546 0.109340 0.015031
0.835345 0.058984 0.044171
0.331991 0.099408 0.001449
-0.608912 -0.018315 -0.049802
0.309096 -0.076793 -0.288207
0.008971 0.026681 0.090564
-0.011999 -0.010651 -0.370878
-0.060611 0.023537 0.683076
-0.573595 0.133880 -0.014455
-0.695674 0.119161 -0.015703
0.289458 -0.081243 -0.289782
-0.197809 0.107433 0.845152
0.043622 -0.023652 0.229566
-0.785865 0.073056 0.082794
-0.276856 0.059842 0.076072
-0.625682 -0.015101 -0.046666
0.629527 0.066630 0.069825
0.071167 -0.037844 0.289978
-0.080129 -0.087064 0.050692
-0.114092 -0.090010 0.037279
-0.147041 0.060939 0.075148
0.480872 0.047888 -0.084730
0.025967 -0.035435 0.271620
-0.573298 -0.020446 0.056968
0.355759 -0.107818 0.274866
-0.175276 0.090854 -0.039180
0.221177 -0.066564 -0.131635
0.086001 0.063935 -0.074592
0.634372 0.085307 -0.047655
-0.811192 0.233438 -0.006761
-0.044391 0.006854 -0.526651
0.148824 -0.031000 -0.312836
-0.159657 0.019795 0.717297
0.538999 -0.099379 -0.003522
0.806956 0.068773 -0.043139
-0.389362 0.074582 -0.066034
0.011206 -0.098106 0.052237
0.238189 -0.077668 0.095995
-0.377783 0.047966 0.084315
0.079411 -0.098527 0.035642
-0.714715 -0.001565 -0.023718
0.212681 0.095980 -0.026598
0.418414 0.060937 -0.076636
-0.787907 0.076473 -0.189990
0.257938 -0.132004 -0.242577
0.175957 0.024207 0.091037
-0.665288 0.171784 0.015038
-0.228378 0.096054 -0.844139
0.076927 -0.062189 -0.174915
-0.287787 0.090496 -0.040365
0.087083 0.097784 -0.017147
0.031889 0.097930 -0.015928
0.739381 -0.063265 0.065203
-0.059177 -0.010734 -0.497554
0.069192 -0.030719 0.354536
0.036641 0.002876 0.542419
-0.461809 -0.044293 0.066152
0.832823 0.076190 -0.010988
0.761135 0.044821 0.070551
-0.068016 -0.008503 -0.430656
0.372739 0.037970 -0.088521
-0.437938 -0.078244 0.003664
-0.764671 0.061369 0.107981
-0.248016 0.059744 -0.077449
-0.631764 0.044662 0.058845
0.302822 -0.077033 0.084695
-0.024069 -0.043741 -0.321345
0.851744 -0.044400 0.005657
0.268527 -0.128495 -0.262996
0.009956 -0.054007 -0.301899
0.200821 -0.126165 -0.262797
0.777169 -0.042067 0.073154
-0.713039 0.042711 0.045917
-0.192273 0.072082 0.066189
-0.812769 0.347569 0.010292
0.348337 -0.083659 -0.060677
0.008026 -0.107157 -0.007665
-0.650613 -0.019349 -0.030087
0.640949 -0.043581 0.081891
0.393476 0.097004 -0.021542
0.156667 -0.034338 0.290273
0.082928 -0.009738 -0.313164
-0.460117 0.112132 -0.010873
0.330623 -0.091813 0.049569
-0.266641 -0.079808 0.053374
-0.270939 -0.097586 0.006615
0.137266 0.095885 -0.027064
-0.612247 0.026967 0.064903
-0.754441 0.176715 -0.013145
-0.222078 -0.086610 -0.045873
0.351706 -0.037953 0.240705
-0.612687 -0.018245 0.046602
0.031418 -0.029528 -0.349373
0.250039 -0.075704 0.285497
-0.086266 0.003569 0.645844
-0.793700 0.054901 0.045325
-0.840495 0.389584 -0.009688
0.642406 0.093172 0.028816
-0.327497 -0.092020 -0.011441
-0.191355 0.030196 0.803340
0.565013 0.085527 -0.049453
-0.077061 -0.025300 -0.418691
0.499386 0.057440 -0.079020
0.131519 0.066195 0.071466
-0.073693 0.010781 0.712868
0.046213 -0.020447 0.441644
-0.839565 0.073371 0.141586
0.141502 -0.104095 -0.033549
0.129327 -0.019863 0.196165
0.385021 0.083664 -0.052543
0.830853 -0.076297 0.041355
0.120502 -0.070377 -0.236997
0.923098 -0.074338 0.002155
0.125767 -0.020665 -0.192126
0.329009 -0.111907 -0.282609
0.584930 -0.094379 0.027208
0.083006 -0.133186 -0.109868
-0.440778 -0.075191 0.019835
0.034209 -0.040737 -0.229871
-0.829215 0.085655 0.175458
0.234913 -0.066086 0.280785
-0.106356 0.004844 0.629069
-0.063001 0.013039 -0.588010
0.292155 0.066141 -0.072992
-0.289373 -0.091008 -0.030263
0.049921 -0.017652 -0.462283
0.026008 -0.026821 -0.377490
-0.125298 0.016780 -0.770837
0.947052 0.007199 0.032356
-0.704751 0.247647 -0.014365
0.274729 -0.109510 -0.284832
-0.602441 0.042186 -0.066603
0.819644 -0.097467 0.027927
0.146618 -0.024459 -0.137239
0.465816 0.010181 0.092764
-0.782158 0.067715 0.029086
-0.734229 0.064593 -0.121023
0.056296 -0.000570 0.407427
0.213564 0.085512 -0.049477
0.104965 -0.023529 0.389081
0.006500 -0.034166 -0.271124
-0.121755 -0.054028 -0.079152
0.076119 -0.068384 -0.116284
0.060623 -0.088418 -0.187391
0.052670 -0.087383 0.085288
0.018113 -0.025262 0.387966
0.644801 0.058194 0.074828
-0.760734 0.089034 0.170675
0.347627 -0.059900 -0.194702
-0.155829 0.016824 -0.749280
0.241436 -0.112384 0.188999
0.024387 -0.040228 0.325508
-0.049302 0.015628 0.600153
0.369787 -0.092607 0.031386
-0.762897 0.069161 -0.149112
-0.755397 0.072559 -0.163934
0.239719 -0.064149 0.133069
-0.778060 0.405915 -0.003421
0.047261 -0.112727 0.103475
-0.009964 -0.025092 0.365109
0.073190 -0.152733 0.164349
-0.022102 -0.001454 0.445722
0.216713 -0.022901 0.183719
-0.793530 0.176297 0.005652
-0.661897 0.084776 0.026081
0.006224 -0.007484 0.378568
0.906950 0.004719 -0.051036
-0.808117 0.302107 0.009286
0.069096 -0.019018 0.442005
-0.010952 -0.099978 0.038019
0.868314 -0.060895 0.017170
0.065456 -0.006132 0.092848
-0.252128 0.066607 0.071167
0.206020 -0.109423 0.278478
-0.213961 0.080270 -0.841008
0.350481 -0.088138 -0.263684
0.401806 0.099306 -0.003878
0.813200 -0.149120 0.017796
0.324689 0.078794 0.057772
0.423071 -0.062364 -0.073497
-0.783785 0.079769 -0.205577
0.140947 -0.038619 -0.276696
0.244008 -0.006190 -0.096790
0.640042 0.040880 -0.085738
0.394118 0.082292 0.053183
0.719124 0.092254 -0.019724
0.007736 -0.013571 -0.505708
0.332437 -0.131141 -0.235650
0.033929 -0.058557 0.150800
-0.251338 -0.097866 -0.013670
0.612351 0.048713 -0.084069
0.050968 0.098302 0.011338
0.034364 -0.135818 0.104202
-0.030530 -0.019359 -0.325726
-0.286664 -0.095851 -0.010402
0.204778 -0.027773 -0.252023
-0.585182 0.029087 -0.071287
-0.542204 -0.036001 0.052919
-0.074929 0.003750 0.525979
0.051852 -0.031285 -0.345805
0.250810 -0.048035 0.161580
-0.788325 0.016307 0.005752
-0.217757 -0.002132 -0.094602
0.836611 -0.104932 -0.025557
0.164107 -0.092855 0.206813
0.218721 -0.058263 -0.160385
0.437476 0.060966 -0.076616
-0.014696 0.006438 0.502608
-0.067154 -0.037193 -0.087893
-0.273850 -0.091325 0.031241
-0.782290 0.083668 0.140948
0.069205 -0.011221 0.306195
0.024287 0.098119 0.012862
0.589333 0.046377 0.084106
-0.012847 -0.048773 -0.106517
-0.350579 -0.075094 0.050254
-0.783438 0.081092 0.217890
0.063178 0.000652 -0.420778
-0.181992 0.098969 0.005506
0.037589 0.099640 -0.000790
0.154629 0.032309 0.088941
0.072829 -0.066663 -0.132397
0.357617 -0.105167 -0.266951
0.275601 -0.071753 0.097944
0.250832 -0.024364 -0.124895
0.044462 0.075828 -0.063115
-0.744867 0.087239 -0.151038
-0.466280 0.040336 0.083733
0.034650 -0.030837 0.341714
-0.378401 -0.055406 0.070451
0.070495 -0.094551 -0.067712
0.388371 -0.024415 -0.091287
0.179738 -0.076092 0.103042
0.228128 -0.055978 -0.173403
-0.111341 -0.099066 -0.005746
-0.230284 0.015254 -0.093793
-0.725194 0.145292 -0.014685
-0.698874 0.078467 -0.099615
0.612039 -0.101270 -0.007990
-0.094979 -0.006118 -0.496332
0.046730 -0.089069 0.130772
0.167581 -0.108259 -0.215012
-0.191530 0.035167 0.820177
0.020009 0.008505 -0.510746
0.767068 -0.014400 0.080321
0.455324 0.074121 -0.065306
-0.660857 0.135067 0.016207
-0.832039 0.319799 -0.007450
0.400382 0.097630 0.016952
-0.005621 -0.000726 0.438804
0.167977 -0.071120 -0.120632
0.311876 -0.130311 -0.216510
0.528061 0.082009 0.053570
0.289258 -0.098370 -0.183755
0.776426 0.030803 -0.075390
0.688927 -0.095829 -0.022967
-0.148975 -0.025338 -0.091034
0.209281 -0.130738 0.253244
-0.697703 0.263941 -0.012438
0.201568 -0.107343 -0.008228
0.073747 -0.112882 0.126770
0.214762 -0.024242 0.200736
-0.008101 -0.053198 -0.311862
-0.341952 -0.066661 0.062235
0.142603 -0.016834 -0.221379
0.066490 -0.030476 -0.157810
0.397668 -0.041229 -0.085691
0.269763 0.039685 -0.087929
-0.138096 0.082360 0.053090
0.803398 -0.093012 0.029887
0.607330 -0.085904 0.045430
0.085055 -0.010700 0.302250
0.303024 -0.115763 -0.281325
-0.497135 -0.056848 0.042027
-0.757324 0.075560 0.182363
-0.799694 0.224761 0.007026
-0.212935 0.099110 0.004208
-0.142003 0.019903 0.697662
0.361487 -0.074908 0.065494
-0.779587 0.197448 0.009097
-0.348884 0.097838 0.016070
-0.129385 0.010765 0.622028
-0.804648 0.100551 -0.242465
0.731597 0.009178 -0.085948
0.087326 -0.047327 0.217671
0.373612 -0.016206 -0.092819
-0.044778 0.018877 -0.630213
-0.740080 0.160077 -0.013926
0.370412 0.077246 -0.061273
0.007485 -0.020400 -0.283106
-0.424011 0.095333 0.026192
0.150039 0.078379 -0.059799
0.542242 -0.070400 0.065306
0.031214 -0.093668 0.040118
-0.755617 0.003918 -0.007961
0.539711 -0.053361 0.078116
-0.466333 0.072306 -0.066210
0.002612 -0.044961 0.105099
-0.771952 0.061435 -0.102981
0.025569 -0.037748 0.139881
-0.178736 -0.061690 0.072477
0.098093 -0.025435 -0.099939
-0.698718 -0.006939 -0.024726
0.165147 -0.090555 -0.084817
-0.023072 -0.057381 -0.096365
0.080746 -0.097211 -0.046326
0.315422 -0.032247 0.091024
-0.040620 -0.046385 -0.317743
-0.410640 0.074677 -0.065284
0.514800 0.099165 -0.005181
0.649669 -0.062285 -0.072168
-0.665847 0.076912 -0.039466
0.200792 0.090416 -0.040144
0.737863 0.059560 -0.066436
0.218390 0.079193 0.057253
0.090699 -0.004246 -0.436577
-0.023913 -0.022624 -0.376468
0.021558 -0.007622 0.541216
-0.849396 0.102264 0.278064
-0.068450 -0.000618 -0.612368
0.831051 0.073708 0.020793
-0.729547 0.226688 0.014165
0.192488 0.065456 -0.073490
0.713312 -0.014905 0.086041
0.121726 -0.023116 -0.171503
-0.439329 0.056971 -0.078785
0.105584 0.081979 0.053611
-0.693640 0.212026 -0.015721
0.439292 0.042956 0.085313
0.348645 -0.108378 0.246809
-0.263523 -0.052053 -0.080227
0.247105 -0.044151 -0.175493
0.278294 0.064225 0.072897
-0.725147 0.259400 -0.014803
-0.681133 0.040454 -0.051127
0.166843 -0.015566 0.248256
0.073817 0.000890 0.438249
0.453287 0.041792 -0.087202
-0.388386 0.036034 0.088359
-0.333767 -0.091852 0.007253
0.319126 0.097176 0.019209
0.974543 -0.037664 0.023628
-0.724465 0.108058 -0.012522
0.230705 0.019269 0.091942
0.166903 -0.024759 -0.302161
-0.021668 -0.061248 0.199503
-0.664684 0.001218 -0.044735
-0.112853 -0.024885 -0.431516
-0.077804 -0.075457 -0.071968
-0.741689 0.239260 0.013761
-0.136771 0.015828 -0.752306
0.065948 -0.004877 -0.364725
0.079129 -0.027151 -0.100096
-0.760655 0.100257 0.006369
0.136008 -0.101131 0.224285
0.304853 -0.034090 -0.096545
-0.755982 0.037391 -0.031582
0.073621 -0.073736 0.103130
0.112482 -0.046878 0.247515
-0.820521 0.272688 -0.007116
-0.030300 0.017048 -0.093630
0.158840 -0.017082 0.212576
0.256060 -0.126232 -0.204175
0.041578 0.018051 -0.093539
0.489879 0.003554 -0.094824
-0.022365 0.013526 0.649254
0.650518 0.006581 -0.092296
0.501047 -0.075614 0.059362
0.205732 -0.021274 -0.137722
-0.271399 0.086414 -0.048171
0.039566 -0.063828 -0.126448
0.313756 0.099336 0.002117
-0.192800 0.097331 0.018441
0.100122 -0.067979 -0.113264
0.094743 -0.072164 0.099729
0.136659 -0.015393 -0.357361
0.061340 0.002908 0.468421
0.054408 -0.008513 0.337371
0.009356 -0.102592 0.033825
-0.853235 0.095907 0.310176
0.302067 -0.114790 -0.190407
-0.707981 0.096448 0.013277
-0.086401 0.013490 0.737469
-0.134136 0.024182 0.091042
0.047933 -0.080825 -0.122331
0.739405 0.052454 0.069496
0.174614 -0.119556 -0.254882
0.125547 -0.010557 0.291289
0.047166 0.000972 -0.426726
0.217483 -0.075649 -0.104090
0.461734 0.027640 0.090380
0.630764 0.077750 0.057409
0.546700 -0.029859 -0.089624
0.107760 0.037404 -0.088716
0.906949 0.027326 -0.040758
0.239017 0.097713 0.016259
0.384666 -0.071301 0.064305
0.121788 -0.057810 -0.224767
0.173885 -0.001741 -0.095369
0.064967 -0.042432 -0.237432
-0.170720 -0.087179 0.043402
-0.172908 0.036772 0.828642
0.401739 -0.014024 0.091664
0.460801 -0.045096 0.082482
-0.013521 0.068714 -0.070932
0.189841 0.042205 -0.087059
-0.629304 -0.000787 -0.054803
0.135254 0.098855 -0.008053
0.216470 -0.020906 -0.111713
-0.332254 0.049762 0.082993
0.070877 0.001144 -0.436958
-0.177135 0.084168 0.844371
0.483978 -0.097212 -0.017827
0.040417 -0.100810 0.024148
-0.403495 0.033726 -0.089887
0.341366 -0.073722 -0.236737
0.050899 -0.037768 0.264944
-0.060986 -0.012521 -0.463793
-0.006008 -0.004402 -0.412574
0.020635 -0.053163 -0.167863
0.235083 -0.105022 -0.028602
0.042640 -0.084291 0.161603
0.217849 -0.021614 0.133445
-0.246377 0.085436 -0.049603
0.156205 -0.093776 -0.211960
-0.039284 -0.047832 0.088353
-0.244243 -0.093753 0.028684
0.054309 -0.163539 -0.111605
0.081494 -0.065678 0.118317
0.047060 -0.107108 -0.011345
0.272933 -0.063348 -0.119059
-0.268851 -0.070396 -0.065993
0.178856 -0.017326 0.232949
-0.781034 0.082903 -0.131701
-0.422459 0.009118 -0.091996
0.018575 0.083546 -0.052739
-0.023710 -0.059257 -0.204716
-0.293055 0.077447 -0.061602
-0.805416 0.098560 0.243564
0.127918 -0.028298 -0.117196
0.222698 -0.098370 0.062564
-0.623089 0.083066 0.034104
0.099025 -0.005455 -0.351368
-0.259053 -0.095780 0.021516
-0.125289 0.028808 -0.755482
-0.255945 -0.071926 0.063530
-0.723239 0.245527 0.013780
0.225953 -0.022514 0.151493
-0.199869 0.092894 -0.838916
-0.737533 0.231737 -0.015376
-0.534886 0.006478 -0.078902
0.228241 0.065363 -0.073557
-0.002495 -0.020432 0.289251
-0.146648 0.019008 -0.782369
0.690468 0.050556 -0.078042
-0.026480 0.014955 -0.586062
-0.009489 -0.015043 0.334792
0.635756 0.093310 -0.030696
-0.071138 0.099447 -0.002576
0.572939 -0.089079 0.039292
0.040136 -0.033877 -0.333942
-0.028061 -0.081593 0.078823
0.927575 0.001498 -0.046158
0.249912 0.094760 0.028469
0.161260 -0.063514 0.255032
0.002939 -0.036938 -0.424815
0.043259 -0.081731 0.026460
0.667483 0.089503 -0.036017
-0.051105 -0.001566 -0.611134
0.046473 -0.004332 0.377294
-0.501573 0.126369 0.007771
-0.379080 0.008890 0.093015
0.265684 -0.063587 0.187194
0.479589 0.089533 0.040589
0.104270 -0.004675 0.394343
0.776100 -0.077172 -0.050883
-0.751520 0.060258 -0.100130
-0.102462 -0.098381 0.010410
0.125084 -0.017445 0.221686
-0.059791 -0.065952 0.083078
-0.534615 -0.059056 -0.003426
-0.187725 0.083575 0.051204
-0.774518 0.076661 0.097618
0.240906 -0.098937 -0.061073
0.086785 -0.030033 0.357076
-0.688814 0.074280 0.061216
-0.029468 0.002085 0.477900
-0.769037 0.343257 0.011035
0.238844 0.075942 -0.062968
-0.032384 -0.033519 0.323319
0.361236 -0.053875 -0.082439
-0.037568 -0.013200 -0.372105
-0.433592 -0.007666 0.087424
-0.266898 0.072054 0.066356
-0.330705 0.033286 0.089340
0.334608 -0.060481 -0.086766
-0.136600 0.025504 0.739008
0.138784 0.097903 0.014665
0.042673 -0.028741 0.191789
-0.756862 0.089939 -0.202753
0.907014 -0.079842 -0.004630
0.308694 -0.033324 0.221928
0.323144 -0.068603 0.084357
0.499776 -0.046466 0.081819
-0.047011 -0.010453 -0.402820
0.374074 -0.035541 -0.087735
0.698958 0.063606 0.067430
0.138362 0.093340 0.031934
0.403738 -0.054052 0.077649
0.042908 -0.008453 -0.517246
-0.068274 -0.036312 0.086630
0.029188 -0.024598 -0.235198
0.823840 0.015832 0.068862
0.553748 0.075626 0.061888
0.020242 -0.084711 0.083977
-0.744101 0.031778 0.031816
-0.706847 0.077476 0.084822
0.040066 -0.020849 -0.441516
0.515420 -0.015090 -0.092996
0.026806 -0.025923 0.226814
0.175490 -0.019942 -0.105076
-0.115587 0.093274 -0.033582
0.558419 0.048509 0.082889
-0.730063 -0.006785 -0.010873
0.058552 -0.089978 -0.101138
-0.044534 0.018205 0.092039
-0.390287 0.091142 -0.039217
0.538399 0.046690 -0.085414
-0.176500 -0.040625 -0.085908
0.347689 -0.128900 -0.243536
0.347052 -0.059708 0.247524
0.307286 -0.043850 -0.204009
0.737960 0.089375 -0.022973
0.481059 -0.073957 -0.062843
0.022412 -0.009556 0.350576
0.000265 -0.031249 -0.332763
0.000550 -0.000309 -0.597063
0.090359 0.083148 -0.053399
0.038289 -0.114457 0.138599
0.853566 -0.069765 0.043357
0.505882 0.097478 -0.019203
0.305612 -0.085600 0.288487
-0.668178 0.250177 0.008569
0.506407 0.024076 -0.092548
-0.309291 0.060320 0.076103
0.113771 -0.050006 0.204903
-0.723605 0.170418 0.014298
-0.359216 -0.063875 -0.065250
0.593262 0.067317 0.070651
-0.201341 -0.053541 0.077994
-0.255832 0.093361 -0.033381
-0.031084 -0.014537 0.091590
-0.003193 -0.026715 -0.257144
0.268307 0.091331 0.036640
0.668736 -0.051600 -0.078348
-0.593056 0.104564 0.018739
0.762770 -0.072539 0.055424
0.885067 -0.017575 -0.057863
-0.688051 0.059517 -0.081075
-0.027486 0.017094 -0.609347
-0.102851 0.098869 -0.007920
0.040041 -0.021601 0.247032
-0.226955 -0.074242 0.061015
0.137792 -0.014082 0.349157
-0.013961 -0.006218 0.403874
-0.712881 0.271309 -0.013261
0.320891 -0.131653 0.234846
-0.789811 0.088609 -0.243131
-0.807222 0.257165 0.007320
-0.231417 0.045565 -0.085899
0.030567 -0.008659 -0.529407
0.745914 -0.088588 -0.036978
0.020978 -0.012100 0.332633
0.107009 -0.018454 0.222409
-0.794724 0.353765 -0.012848
0.298080 -0.119942 0.276049
-0.803822 0.077208 -0.011685
0.706410 -0.055900 0.072542
0.076572 -0.046299 0.234809
0.752264 -0.036058 -0.079006
-0.699439 0.040635 -0.047166
-0.177744 0.029366 0.089929
0.135992 -0.037652 0.284252
-0.746366 0.070695 0.044790
-0.386859 -0.026816 0.085792
-0.130973 0.018624 -0.787521
0.181400 -0.096945 0.069887
-0.068624 -0.000027 0.500608
0.550711 -0.013295 -0.093255
-0.045972 0.013817 -0.584146
-0.419240 0.086523 0.046478
0.343334 -0.127508 0.216238
-0.777128 0.113252 0.004928
-0.271367 -0.005896 0.092705
0.900690 -0.044156 -0.047330
0.079141 -0.044735 -0.245076
-0.143075 0.030347 -0.823804
-0.264409 -0.003158 -0.094491
-0.525667 -0.034590 -0.061314
-0.097068 0.007938 0.689162
-0.719050 0.216501 -0.015955
0.770049 -0.088911 0.033023
0.761855 -0.059626 0.065762
0.645324 0.010346 0.090778
0.147046 -0.072252 0.110098
-0.118844 0.001210 0.579390
0.051940 0.052351 -0.082181
-0.818109 0.069844 0.142906
0.637065 -0.029768 -0.088396
0.116205 -0.099736 0.055320
0.144548 -0.100626 -0.052058
0.621092 -0.039092 -0.085984
0.371531 0.000639 -0.094851
-0.098032 0.002051 -0.617704
-0.044279 -0.028561 -0.325933
-0.177216 0.033698 -0.810120
-0.182162 0.057832 0.077266
0.201068 -0.020551 0.179986
0.341373 0.097750 -0.017428
0.189290 -0.115206 -0.272946
0.342173 -0.089582 -0.224392
0.737203 -0.045315 0.075539
0.207304 0.041840 0.085699
-0.182571 -0.077722 0.056821
-0.068693 0.022484 -0.092852
0.087782 -0.039009 0.279336
0.748708 0.011429 -0.083565
0.002110 0.011420 0.601826
0.343721 -0.077191 -0.284620
-0.703191 0.175369 0.015253
-0.041354 0.000774 0.628224
0.120907 -0.069944 0.233150
-0.491574 0.064358 -0.071973
-0.435457 0.089143 0.040964
