-0.593790 0.040359 -0.126128
0.187639 -0.016991 -0.093436
-0.620168 0.040359 -0.260420
-0.537413 0.099678 -0.007572
0.192318 -0.001319 -0.078233
-0.216766 -0.065047 -0.023192
-0.627145 0.050638 -0.300799
0.163756 -0.069513 0.047522
-0.525184 0.000843 0.040697
0.140173 0.050254 0.058539
0.663218 0.077387 0.013180
-0.012282 -0.027596 0.295572
-0.063182 -0.082420 0.063119
0.411097 0.074343 -0.023892
0.334847 -0.034095 -0.095126
0.190860 -0.097404 0.150419
0.692949 0.039244 0.065930
0.743869 0.014412 -0.072412
0.553827 -0.001676 0.074053
0.610413 -0.006410 0.073430
0.242170 -0.105863 0.187171
0.406877 -0.038770 0.063570
0.532141 0.074505 0.024586
0.205475 -0.132822 0.184232
-0.155284 -0.069513 -0.013251
-0.706162 0.077980 0.000253
-0.552750 0.066798 -0.034777
-0.067434 -0.114723 0.021259
0.515189 0.063751 0.044687
0.126083 -0.023196 -0.224402
0.185041 -0.108890 -0.150128
-0.027164 -0.030384 -0.526286
0.874778 0.015157 0.052551
-0.590305 0.101523 -0.007261
0.022110 -0.026318 -0.254531
0.078116 -0.063718 0.176491
0.248646 0.053227 -0.054882
-0.562024 0.185187 -0.006666
0.027675 -0.037350 0.145460
0.045713 -0.025136 0.241220
0.026389 -0.027153 0.155313
-0.578297 0.049302 -0.253387
0.014759 -0.014326 -0.088502
-0.357880 -0.038841 -0.043332
-0.192690 -0.034424 0.649481
0.671368 -0.042495 0.057101
0.546985 -0.005400 -0.072365
-0.524797 0.040359 -0.116065
-0.135956 -0.024977 -0.615820
-0.162798 -0.064790 0.066398
0.203998 -0.105747 0.223964
-0.554533 0.040359 0.127455
-0.070034 -0.053340 -0.089758
0.210914 -0.028803 -0.175362
0.130916 -0.069513 -0.001278
-0.130498 -0.026139 -0.571748
0.644863 0.076525 0.018041
0.072560 -0.041198 -0.233669
0.863084 0.003510 0.057270
0.800327 0.014509 0.068375
-0.652696 0.289342 0.007864
-0.054697 -0.011715 -0.085878
-0.004132 -0.040067 -0.414011
0.410421 0.011671 -0.072789
-0.396617 0.043843 0.056420
0.107970 -0.069795 -0.031952
-0.540117 0.000180 0.036141
-0.614610 0.314159 0.007862
0.118916 -0.112192 0.165056
0.827951 0.016905 0.063155
-0.654963 0.038804 0.032176
-0.113492 -0.024674 -0.600104
0.215855 -0.127421 0.173725
0.524938 -0.016748 0.071377
0.276340 0.066197 0.041483
0.533790 -0.054828 -0.042679
0.216643 -0.028528 -0.162372
-0.164044 -0.028375 -0.604802
0.043795 -0.025600 -0.119110
0.332654 -0.062864 -0.079020
-0.599241 0.051481 -0.049312
-0.035861 -0.024511 -0.430945
0.149231 -0.018713 -0.097142
0.023544 -0.036346 -0.437075
0.013306 -0.036818 0.447911
-0.075379 0.011059 0.074327
-0.539340 0.075238 0.024496
0.279419 -0.009986 -0.084151
0.103366 -0.042567 0.111792
-0.485634 0.054220 -0.095424
0.932115 -0.046618 0.012642
-0.036925 -0.028213 -0.333150
0.356215 0.013326 -0.072655
-0.199080 -0.032880 0.722907
-0.080234 0.056923 -0.051613
-0.574081 0.053290 0.207095
-0.021135 -0.024560 0.399558
0.101447 -0.039324 -0.282038
0.104025 -0.039886 0.271489
-0.612837 0.008558 0.013310
-0.018430 -0.071848 -0.068249
-0.066078 -0.107278 -0.032800
-0.511817 0.052952 -0.071244
0.750900 0.078208 -0.004538
-0.048702 -0.120931 0.051434
-0.657052 0.019739 0.009848
0.268026 -0.047921 0.095021
0.076603 -0.023673 0.187351
0.757830 -0.014145 0.071087
0.187040 0.074493 -0.023426
0.511803 -0.041788 -0.056526
-0.448222 0.065364 0.040701
-0.448444 0.057466 -0.075637
0.029719 0.003309 0.077111
0.175216 -0.024304 0.167705
0.093896 -0.112908 0.170153
-0.021415 -0.108437 0.049530
-0.608933 0.136649 -0.006670
0.590810 -0.058969 0.037594
0.309541 -0.068237 0.067929
0.427641 -0.051951 0.047572
-0.262920 0.029838 0.068912
0.247278 -0.069513 0.024928
-0.090444 0.007100 -0.074101
0.009410 -0.028733 -0.178559
0.317810 -0.069513 -0.016172
0.562531 -0.067722 -0.013009
0.101644 -0.093534 0.213014
0.111401 0.027952 0.070595
0.206071 0.043489 0.063300
-0.560080 0.074070 -0.024476
-0.095511 -0.038570 -0.515113
0.020363 -0.040239 0.388676
-0.034068 -0.039899 -0.095824
-0.685126 0.064138 -0.024822
0.111018 0.046161 0.061470
-0.014638 -0.040381 -0.403531
0.544765 0.063301 0.045255
-0.002671 -0.101442 -0.054209
0.705439 0.059757 -0.048494
0.132042 -0.082140 0.217115
-0.039211 -0.134874 -0.053527
0.833543 -0.016264 -0.060458
0.592323 0.034129 -0.066941
-0.139409 -0.069437 -0.055178
0.135490 -0.128365 -0.198126
0.091219 -0.068566 0.169943
-0.177996 -0.025887 -0.672541
-0.272898 0.077717 0.008691
0.245407 0.077187 0.014645
0.065517 -0.097678 -0.186839
0.061653 0.054325 -0.053924
0.091096 -0.053869 0.161836
0.588211 0.032028 0.069032
0.608837 0.009471 -0.073076
0.226490 -0.027754 0.135505
0.835220 -0.079575 -0.015601
0.410555 -0.065497 -0.022188
-0.605991 0.028597 0.041757
0.045556 -0.040253 -0.314630
0.012348 -0.153558 -0.020947
0.037769 -0.025950 0.196008
0.225134 -0.067759 -0.199241
0.095260 -0.032131 -0.350295
0.657555 -0.034468 -0.061839
0.045725 0.027030 0.070949
0.205136 -0.040220 -0.117101
0.315252 -0.069513 -0.000679
0.252781 -0.040254 -0.103934
-0.613638 0.040359 -0.277559
0.479223 0.086206 -0.009185
-0.054278 0.074739 0.023830
0.000223 -0.024282 0.371458
0.208708 0.062505 -0.045060
-0.015634 0.077454 -0.011494
-0.131200 -0.025074 -0.601608
0.095156 -0.022812 -0.149470
0.027785 -0.067177 -0.073111
-0.580593 0.040359 0.205731
0.778474 0.062913 0.041409
0.007334 -0.027065 0.266945
-0.628843 0.221167 -0.006668
-0.376550 -0.028498 -0.049072
-0.017477 -0.032628 0.517467
-0.033878 -0.026212 -0.373043
-0.577012 0.040359 -0.138353
-0.208470 -0.027293 0.695202
-0.579625 0.059363 0.041584
-0.203936 -0.031760 -0.721610
-0.066919 -0.031613 -0.095659
0.117381 -0.027875 0.294557
0.881670 0.038610 -0.038716
0.002605 -0.131602 0.001944
-0.236042 0.057810 -0.049884
-0.612900 0.039496 0.047506
-0.210628 -0.005029 0.073461
-0.242589 -0.055834 -0.041234
0.105814 -0.096266 -0.212880
0.171164 -0.095833 -0.147179
0.716316 -0.063270 0.028818
-0.186708 -0.069371 -0.006870
0.029409 -0.037714 0.202611
0.035798 -0.039702 -0.298909
0.178199 -0.120834 -0.220351
0.010897 -0.140975 0.014347
-0.343139 0.053105 -0.052148
0.093425 -0.023689 0.282436
0.167930 -0.056667 -0.145518
0.058265 -0.040451 0.304639
-0.048509 -0.099505 0.054664
0.397078 0.050477 -0.057171
0.060233 0.068953 -0.035508
0.311364 -0.069513 -0.043693
0.075603 -0.091122 -0.004009
-0.243474 0.078663 0.001148
-0.030418 -0.024567 -0.095852
0.013959 -0.027416 -0.221993
-0.119066 0.068835 -0.035714
0.477471 -0.010971 0.072629
0.160154 0.066590 0.040846
-0.533573 0.051464 0.069478
-0.078562 -0.045679 0.095061
-0.648854 0.197597 -0.006669
0.211536 0.041967 -0.063146
0.849713 -0.016940 0.058412
-0.645555 0.070941 0.024296
0.014072 -0.097480 0.019561
0.634039 -0.061199 0.033619
-0.148192 -0.066967 -0.066330
-0.195736 -0.037734 -0.696669
-0.064688 -0.025029 -0.468349
-0.048756 -0.054944 0.089779
0.879221 0.026191 -0.046387
-0.024838 -0.084470 -0.061094
-0.629745 0.049538 0.254880
-0.537120 0.040359 0.159008
-0.002754 -0.146730 -0.055742
-0.053275 -0.164581 -0.020591
0.320083 0.024451 0.071938
-0.120879 -0.069513 -0.010127
-0.403007 0.077682 0.007716
0.085555 -0.040617 -0.255613
-0.159672 -0.069513 -0.031843
0.312176 0.034898 0.067807
0.990793 -0.002718 0.009103
0.266535 0.033962 0.068211
-0.645364 0.141186 0.007870
0.490668 0.044335 0.062721
-0.331280 -0.044528 -0.043848
0.074612 0.073356 -0.026277
-0.102341 0.050718 -0.056987
0.482725 0.067244 -0.038502
0.020080 -0.027996 -0.134602
-0.387210 -0.033933 -0.041004
-0.641797 0.314373 -0.006667
-0.477888 0.040360 0.119469
-0.200870 -0.020192 0.070559
0.003975 -0.122893 0.033047
0.136750 -0.029566 -0.281503
0.760586 -0.131910 -0.015999
-0.219469 -0.006172 -0.717059
0.208036 -0.037430 -0.188487
0.428019 -0.059880 0.035970
0.224268 -0.054185 -0.163698
-0.473913 -0.011148 -0.041187
-0.014639 -0.111735 -0.049811
0.004038 -0.024464 0.352998
0.158915 -0.022091 -0.138792
-0.124174 -0.069513 0.044147
-0.535538 0.040359 -0.160998
-0.463689 0.040425 0.106712
0.063042 -0.091617 0.056429
0.250916 -0.054350 0.090328
0.553702 -0.025439 -0.066589
0.100229 -0.056343 -0.087522
0.665435 0.025244 -0.070435
0.143008 -0.087377 -0.220863
0.282685 -0.020764 -0.093880
0.483838 -0.034894 -0.061532
-0.480397 0.001310 0.049977
-0.106735 0.074689 0.024941
0.012850 -0.024335 -0.340182
0.639941 0.001683 0.074297
0.707946 -0.069182 0.002356
-0.618436 0.044835 -0.185479
0.032355 -0.024617 -0.386669
-0.403062 -0.016764 -0.052151
-0.379588 0.034173 -0.060630
-0.054389 -0.079877 -0.063070
0.009603 0.053663 0.055700
0.105737 -0.120052 0.199358
-0.062659 0.024445 0.071940
0.608985 -0.045534 -0.053124
0.061356 -0.040126 0.117189
-0.089381 -0.024589 -0.539152
0.275468 0.054985 -0.053348
0.797578 0.043802 0.057180
-0.501613 0.053951 0.081042
-0.048249 0.027347 -0.069629
0.040390 -0.028643 -0.414933
-0.105061 -0.028501 0.476649
0.053622 0.015698 0.073476
-0.523190 0.040359 0.158082
0.845897 0.002529 0.061488
0.844631 0.055231 -0.034692
0.415895 -0.010207 -0.071591
0.044805 0.078377 0.005312
-0.509466 0.040359 0.158225
-0.003218 -0.037201 -0.282438
0.666380 -0.018834 0.070525
-0.122677 -0.024959 -0.588565
-0.098800 -0.034610 0.436688
-0.542723 0.168589 0.007864
0.112076 -0.070201 -0.046439
0.444560 0.076894 -0.015723
0.447233 0.015029 0.073548
-0.507905 0.069466 -0.031710
-0.461636 0.061729 -0.072075
0.739508 0.068816 0.036932
0.256316 -0.069513 0.038072
1.001660 -0.001543 -0.000448
0.732985 0.049607 -0.057834
0.070979 -0.023748 0.315852
0.388698 0.075601 -0.019838
-0.044676 -0.036217 -0.343495
-0.151145 -0.035998 0.701918
0.899568 0.048422 -0.023603
0.732827 0.078861 0.000209
0.005401 -0.119736 0.050461
-0.294127 -0.052347 -0.039062
0.241152 -0.113770 -0.180666
-0.479871 0.010092 -0.052822
0.175809 -0.100814 0.229240
-0.140601 -0.069513 -0.037892
-0.595643 0.040407 -0.274830
0.138608 0.034131 0.068138
0.819069 0.065999 0.027338
-0.098021 -0.031870 -0.431750
-0.120197 -0.038719 0.563045
0.548204 0.041501 0.064663
0.082470 -0.045171 -0.223083
-0.202315 -0.032040 0.668484
-0.010410 -0.032332 -0.229201
0.461650 0.028386 0.070429
-0.555188 0.040359 -0.121129
-0.024862 -0.038701 -0.481713
-0.112347 -0.070099 0.052898
0.845752 -0.076940 0.015061
0.249435 0.065444 0.042501
-0.107216 -0.070735 -0.062118
0.044700 0.074470 -0.023503
0.234461 0.066769 0.040532
-0.006306 -0.025409 -0.338711
0.155827 -0.021165 0.111485
-0.028908 -0.154808 -0.011317
-0.595897 0.287543 -0.006646
-0.458662 -0.012584 -0.043485
-0.005618 -0.037148 0.287029
0.347055 -0.069513 0.039331
0.396813 0.020574 0.072652
0.029281 -0.026182 0.230439
-0.558299 0.009579 -0.038715
0.187865 -0.055466 -0.088434
0.001996 -0.036363 -0.468821
-0.094269 -0.026911 -0.481047
-0.024890 -0.027161 0.332416
-0.428075 0.047396 -0.062177
0.083959 -0.087872 -0.048969
-0.024335 -0.028701 -0.295254
0.163557 -0.129814 0.165638
0.145180 -0.054206 0.091058
-0.000685 -0.023840 -0.415460
0.364917 -0.061302 0.073216
-0.179844 0.053660 -0.054451
-0.562562 0.139126 0.007866
0.058876 -0.023941 0.269027
0.405383 -0.066439 0.022880
0.204773 -0.048827 0.195259
0.126979 -0.003297 -0.079379
-0.611708 0.102451 0.008251
-0.064495 -0.154715 -0.055492
-0.007876 -0.038561 0.458587
-0.536671 0.065225 0.038093
-0.011073 -0.050785 0.092915
-0.673801 0.239683 -0.006668
0.058540 -0.025260 0.355223
-0.639577 0.050636 0.312716
-0.598414 0.040359 -0.167517
0.782694 0.046474 -0.055968
0.265524 -0.059633 -0.083733
0.488140 0.058973 -0.049357
-0.127777 -0.026609 0.650082
0.060720 -0.036742 0.378303
0.207860 -0.022051 0.104969
0.775990 -0.038503 -0.056698
-0.230401 -0.066098 -0.019808
-0.345793 -0.054287 -0.021596
-0.123558 0.058771 0.050778
-0.080525 -0.040604 0.545057
0.426978 0.022980 0.072246
-0.128453 -0.069513 -0.025874
-0.628438 0.183845 0.007867
-0.655156 0.062536 -0.028604
-0.286595 0.009020 -0.071162
0.004490 0.015347 0.073539
0.066340 0.000233 0.078582
0.090990 -0.093435 -0.211218
-0.578425 0.021075 0.042239
0.792402 -0.041766 -0.052928
-0.158660 -0.069513 0.004177
-0.158080 0.039293 0.065909
0.043442 -0.038691 -0.173381
-0.105463 -0.022850 0.095702
0.818330 0.006654 0.066412
0.518864 0.068991 -0.035441
-0.030824 -0.039834 0.470848
-0.425803 0.081343 -0.005955
-0.037731 -0.037268 -0.357847
-0.351692 -0.022875 0.059260
-0.137389 -0.033123 0.519239
0.200277 -0.062963 -0.079267
0.682316 -0.009058 -0.071832
0.064506 -0.035983 -0.380318
0.037560 0.040928 -0.063858
0.140731 0.019344 0.072859
-0.252958 -0.013033 0.071611
0.261461 0.067346 -0.038323
-0.589076 0.052059 0.211039
0.364938 -0.067277 0.060363
0.585299 -0.056401 -0.040659
-0.528474 0.053214 -0.102845
-0.116650 -0.025629 -0.549607
0.042985 -0.025365 -0.226994
-0.066837 0.064556 0.043671
0.213755 -0.107621 -0.155153
0.123953 -0.101650 0.218095
-0.638955 0.103255 -0.006847
-0.090766 -0.040182 0.557796
0.046356 -0.031573 0.423267
-0.478860 0.027541 0.066178
-0.386497 -0.048387 0.012589
0.139260 -0.014292 -0.088764
0.221195 -0.026701 -0.126269
-0.148752 -0.027934 0.579960
-0.172173 -0.036410 -0.623917
-0.057928 -0.158661 0.002352
0.240984 -0.099289 -0.169804
-0.511739 0.054341 -0.129291
-0.279467 -0.000945 0.072170
-0.187406 -0.029745 0.073353
0.398110 0.071730 -0.030161
-0.648419 0.319693 0.007444
-0.615978 0.050649 -0.289256
0.757219 -0.062803 -0.031992
-0.067190 -0.038753 0.465258
-0.073336 -0.137286 -0.014329
0.219563 0.067552 -0.037961
0.193088 0.062975 0.045666
-0.577333 0.040359 -0.157694
0.219210 -0.042325 0.104581
0.443576 0.056420 0.053294
-0.120105 0.084827 -0.009707
0.156951 -0.052418 -0.222951
-0.640274 0.050971 -0.305222
0.157713 -0.022415 -0.155911
-0.405827 0.006536 0.061571
0.140578 -0.022474 0.175126
0.321469 0.055769 0.053861
0.210197 -0.048286 0.096005
-0.274606 -0.048883 -0.046570
-0.460564 0.065376 -0.040653
-0.169848 0.029603 0.069962
0.348900 0.077587 -0.010519
0.574566 0.074275 -0.024056
0.259123 0.011839 -0.072982
0.648570 0.047775 -0.059168
0.200212 -0.069513 -0.037991
-0.027218 0.033780 -0.067091
-0.217717 -0.058556 -0.037070
0.595770 0.020936 0.072591
-0.226087 0.074429 0.023221
-0.250757 -0.067913 -0.009221
-0.595594 0.042019 -0.098234
-0.083985 0.074484 0.024683
-0.133880 0.036900 -0.065744
-0.154817 0.025439 0.071559
-0.156757 -0.027472 0.603195
-0.509542 0.049961 -0.162267
0.014900 0.024343 0.071979
0.758380 0.024569 -0.069620
0.700871 -0.050546 -0.048178
0.821586 -0.027499 0.059269
-0.077990 -0.089155 0.042471
-0.511940 -0.005361 -0.036640
-0.173678 0.008838 -0.073158
0.881474 -0.055010 -0.022724
0.189720 -0.024446 -0.146536
0.227389 0.078352 0.005527
0.053203 -0.041526 -0.104947
-0.001545 0.060213 -0.047952
-0.032190 -0.159979 -0.046114
-0.569278 0.040359 -0.207513
-0.161654 -0.038314 -0.640999
-0.371440 -0.052429 -0.005117
0.374106 -0.068540 0.047890
-0.535346 0.053303 -0.115372
0.480164 0.023034 0.072237
-0.138265 -0.026330 -0.583730
-0.702616 0.295471 0.000814
0.191113 0.055578 -0.052830
0.735969 -0.017104 0.071232
-0.013470 -0.159682 -0.010924
-0.594541 0.205383 0.007865
-0.045108 -0.039720 -0.490620
-0.175640 -0.037459 0.649960
0.017085 -0.024248 0.405635
-0.504071 0.054486 0.112143
0.132456 -0.044840 -0.139166
0.039010 -0.025008 -0.259177
0.565816 -0.066182 0.020765
0.146727 0.030858 -0.068282
-0.562331 0.060143 0.042500
-0.627316 0.050890 -0.274189
0.331394 0.001002 0.078111
-0.352107 0.076530 -0.015240
-0.308717 -0.012234 0.068388
0.078174 -0.023564 0.253335
0.096662 0.003912 0.076823
-0.437597 0.008772 0.059446
0.161794 -0.112033 0.152263
0.079519 -0.083692 -0.061398
-0.102219 0.085291 0.009915
-0.637584 0.213082 0.007866
-0.159053 -0.044920 0.087721
0.079044 -0.041891 0.232334
-0.065755 -0.112607 -0.047477
0.725226 0.077219 -0.013216
-0.064289 -0.024435 -0.496511
0.621062 0.041604 -0.063395
0.123388 -0.069513 -0.021048
-0.584700 0.007924 0.029258
0.753746 0.075832 -0.018012
0.725398 0.038515 -0.065047
0.078051 -0.023414 0.140679
0.147490 -0.031301 -0.272570
-0.104706 -0.043652 -0.094589
-0.419882 0.066993 -0.034195
0.197407 -0.118421 -0.157410
0.423958 -0.041172 -0.057002
0.690828 0.074869 0.023406
0.029357 -0.002405 -0.078863
-0.176304 0.008294 0.074422
-0.106774 -0.033075 0.450096
0.366062 0.072019 0.030672
-0.567030 0.040359 0.160245
0.379428 0.053312 -0.054808
0.055447 -0.023557 0.305094
-0.185918 0.074535 0.024138
0.666685 0.034147 0.068131
0.187431 -0.130380 -0.166921
-0.518476 0.054107 0.110327
0.915817 0.007611 0.041261
0.263725 -0.022158 0.098481
0.124433 -0.014521 -0.088994
-0.101747 -0.025447 -0.529731
0.242239 -0.032845 -0.137580
0.059431 -0.024458 0.197454
-0.172583 -0.068194 -0.046771
-0.075880 -0.038550 -0.561684
0.129650 -0.022512 0.183725
-0.224862 -0.030798 0.718367
0.535639 0.078312 -0.004695
-0.600151 0.040681 0.079061
0.027097 -0.070040 0.071279
0.900619 0.025757 -0.040030
0.228237 0.075698 -0.019525
-0.575368 0.069558 0.030905
0.010867 -0.037940 -0.277272
-0.623502 0.040359 0.294429
-0.638017 0.227559 0.007866
0.470123 0.024631 -0.070670
0.182612 -0.122434 -0.156747
0.508726 -0.009771 0.072880
0.500827 0.034137 0.068135
-0.196815 -0.006975 0.073361
-0.525859 0.023326 0.053828
-0.103455 0.093108 -0.001430
-0.312966 0.065513 -0.039528
-0.045573 -0.038229 -0.518549
0.080543 -0.025164 -0.319452
0.487334 0.074708 0.024732
-0.049708 0.039773 0.065698
0.430250 0.046512 0.061230
0.221226 -0.092277 0.156677
0.099867 -0.027934 -0.319563
0.325715 -0.064284 0.078145
0.007437 -0.025036 -0.322259
-0.364900 -0.016086 0.060447
-0.018113 -0.031573 -0.514671
0.148745 -0.040351 0.235519
-0.699798 0.324848 0.002333
0.240101 -0.124129 0.195934
-0.625098 0.043156 0.040427
0.813751 -0.017796 -0.063207
-0.153027 -0.057309 -0.080754
-0.542703 0.040359 -0.092703
-0.026678 -0.003300 -0.079382
-0.641753 0.040359 -0.289879
0.139753 -0.043277 -0.108877
0.632181 0.033244 0.068521
0.048269 -0.024990 -0.240499
0.122415 -0.063401 -0.078503
0.008825 -0.039748 0.417090
-0.051171 -0.098119 -0.055037
-0.402014 -0.028574 -0.042692
0.210074 -0.054514 -0.155348
-0.169296 0.077106 -0.014040
-0.636528 0.135701 -0.006671
-0.166252 -0.038555 -0.698295
0.333707 0.014996 0.073602
0.004473 -0.156462 -0.007795
-0.541558 0.040359 0.140502
-0.486997 -0.022104 -0.020195
0.665577 -0.031779 0.064753
0.307243 0.065191 0.042842
-0.123612 -0.027002 -0.536626
-0.004736 -0.165522 -0.041240
0.619516 0.069661 -0.034266
-0.482834 -0.016240 0.033973
0.069855 -0.044858 -0.100370
0.336564 -0.069513 -0.020902
-0.721296 0.076680 0.000867
-0.622400 0.041029 -0.166506
0.521062 -0.064705 -0.024186
-0.471568 0.053984 0.086628
-0.568581 0.151542 0.007866
0.219637 -0.057164 -0.182899
0.016398 -0.027806 -0.205802
0.076189 -0.076299 0.182151
-0.580569 0.171239 -0.006668
0.975676 -0.032303 -0.006070
0.475266 -0.057522 -0.038976
0.014208 -0.094290 0.041893
-0.047196 0.056736 0.053018
0.187398 -0.069513 0.033029
0.244976 -0.069513 0.011035
0.049627 -0.027992 -0.394627
0.064074 -0.024222 -0.186718
0.313621 -0.012652 0.088012
-0.040900 -0.011349 0.086711
0.531488 -0.033734 0.063565
-0.125481 -0.024772 0.608681
-0.423183 -0.025322 -0.040772
0.052207 0.077729 -0.009478
0.182849 -0.024223 0.154924
0.001351 -0.030661 -0.484048
-0.469744 -0.029720 -0.005059
-0.066688 -0.025685 0.549926
0.487193 0.047832 -0.059128
-0.732597 0.065822 -0.006401
0.178848 -0.038194 0.225517
0.710104 -0.042425 -0.055967
0.607018 0.078552 0.003744
-0.019582 -0.013316 -0.087478
-0.584338 0.135227 -0.006669
-0.673427 0.040513 0.289158
0.155620 -0.047012 0.137325
-0.094050 -0.039313 0.578107
0.578710 -0.067950 0.012536
-0.604442 0.050597 -0.212284
-0.624837 0.040359 -0.240402
0.238507 -0.041783 0.104794
0.176533 -0.107593 0.149806
0.036388 -0.015920 -0.090828
0.017591 0.035224 -0.066468
0.769150 0.076688 -0.008932
-0.001741 -0.033593 0.493829
-0.181154 -0.023078 -0.075575
0.345284 -0.007093 0.081161
-0.046326 -0.024433 -0.502131
0.091900 -0.080217 -0.207180
-0.401966 0.071211 -0.027584
0.800454 -0.088607 0.010946
0.345101 0.068715 0.037123
-0.589265 0.042730 0.275025
-0.025420 -0.038482 0.371538
-0.038347 -0.039758 -0.403879
0.075497 -0.023341 -0.301127
0.589305 0.075694 -0.019536
-0.562637 0.213015 0.007864
0.095155 -0.040602 -0.269411
-0.607826 0.263199 -0.006666
0.512065 -0.067805 -0.012400
-0.584007 0.262297 -0.006666
-0.003093 -0.004979 0.081552
-0.013721 -0.012191 0.087552
0.810370 -0.036635 -0.054785
0.201610 0.010413 -0.073250
0.058700 -0.042767 0.205374
-0.061312 -0.027090 -0.409157
0.784395 0.018598 -0.068180
0.218928 -0.039123 -0.115087
-0.384572 0.071825 0.028107
-0.497317 0.024301 0.057897
0.140037 -0.069235 -0.059674
0.353902 0.034196 -0.066912
-0.159476 -0.038950 0.661165
0.671630 0.073645 -0.025579
-0.717204 0.072282 -0.014409
-0.651417 0.040366 0.264092
0.349432 0.036841 0.066968
0.554429 -0.068694 0.006711
0.005707 -0.038374 0.304283
-0.612438 0.051811 0.268607
-0.591563 0.303607 -0.004159
-0.567941 0.253622 -0.006510
0.236872 -0.036256 0.126556
0.801691 0.039837 -0.058072
0.103664 -0.020169 -0.102051
-0.620788 0.077207 0.018438
0.859572 -0.035576 0.047766
0.031179 -0.024903 -0.278681
-0.369500 -0.047102 0.027778
0.085993 -0.042855 -0.106126
0.154544 -0.058113 -0.085545
-0.049651 -0.039456 -0.462594
-0.617790 0.051176 0.285444
-0.634542 0.041633 -0.224656
-0.614383 0.072882 -0.022853
0.018880 0.040142 0.065526
0.115566 -0.017444 0.095583
-0.122049 -0.024770 -0.615940
-0.028064 -0.007410 0.083104
0.378843 -0.015755 0.078676
-0.595256 0.050693 0.264475
0.215502 -0.124827 0.208373
-0.040333 0.046390 -0.060116
-0.534895 0.051982 0.084219
-0.541009 0.040359 -0.179111
0.107669 -0.041078 0.244264
-0.167495 -0.026247 -0.644059
-0.029067 -0.039007 0.485672
0.194183 -0.024698 0.144652
0.070772 -0.085967 -0.020610
0.154895 -0.025269 -0.210545
0.988742 -0.021934 -0.006710
-0.531052 0.194931 0.007764
-0.355275 0.041379 0.060487
0.290573 0.065053 0.043029
-0.379141 -0.003222 0.062996
-0.669882 0.311577 0.007864
-0.626698 0.040359 -0.284739
-0.319357 0.070777 0.031983
0.347996 0.073931 -0.024888
0.779332 -0.045717 0.051724
0.238734 0.078240 -0.005333
-0.675237 0.146575 0.001986
-0.267115 -0.035506 0.060358
-0.617277 0.040359 0.177987
0.006290 -0.022488 -0.097962
0.061201 -0.015611 -0.090740
-0.046891 -0.024275 0.496019
0.178524 0.017744 0.073128
0.538642 -0.008190 0.073195
0.204243 -0.015834 0.092383
0.715899 0.055365 0.054215
0.389145 0.064357 0.043922
0.111778 -0.022713 -0.182260
0.042760 -0.039067 0.243289
-0.076601 -0.150384 -0.023000
0.801905 -0.054628 -0.039099
-0.452304 0.074028 0.024440
0.202997 0.077656 -0.010008
0.380244 0.024755 0.071821
-0.626816 0.091041 -0.008587
0.698780 -0.068064 -0.010496
0.324332 -0.069513 -0.032086
0.013665 -0.039257 -0.108483
-0.034503 -0.039685 -0.445932
0.831010 0.062232 -0.028932
-0.677755 0.041472 -0.308966
-0.593933 0.040359 -0.225663
-0.493750 0.113608 0.007865
0.558551 0.014348 0.073637
0.120088 -0.025210 -0.260361
-0.303457 0.056706 -0.050147
-0.293845 0.074311 -0.022053
-0.069130 -0.039111 0.553462
0.477940 -0.046469 -0.052270
0.481842 -0.035512 0.062285
0.230527 -0.118265 0.166319
0.179192 -0.137458 0.192392
-0.567847 0.028281 0.050650
0.182010 -0.026906 0.194465
0.529220 -0.041435 -0.056799
0.184677 -0.083738 0.225729
-0.496770 0.062908 0.041257
0.614410 0.068306 0.037839
-0.577383 0.078816 0.018987
-0.067992 -0.036938 0.413000
0.764641 -0.161878 0.013472
-0.460457 0.031877 0.080213
-0.034306 -0.087806 0.061010
-0.166444 -0.055856 0.077064
0.803107 0.025805 -0.064145
0.860128 -0.050524 0.035350
-0.247500 0.055689 0.053064
0.153159 -0.134207 -0.195531
-0.131028 -0.038265 0.578285
-0.488591 0.036139 0.073526
0.066324 -0.024040 -0.160525
0.567226 0.024873 0.071776
0.028095 -0.026845 -0.177115
0.560058 -0.041518 -0.056735
0.967109 -0.003464 -0.019787
-0.512528 0.040359 -0.149655
0.026753 -0.040057 0.341501
0.101919 -0.022393 0.122453
-0.611821 0.050800 0.237610
-0.286197 0.063022 -0.042985
0.213287 -0.067114 -0.070735
0.113119 -0.086132 -0.163429
0.954197 -0.015061 0.025457
-0.082797 -0.037058 0.589301
-0.182154 0.077951 -0.007302
-0.597302 0.040359 -0.206164
-0.012175 0.040619 0.065267
-0.197103 -0.025949 -0.068242
0.893797 -0.036486 -0.036556
-0.648565 0.040359 0.308870
0.013274 -0.025412 -0.424214
0.852669 -0.072396 -0.013008
0.404322 0.024477 -0.070729
-0.360114 0.053415 -0.051074
0.820703 0.072752 0.006790
0.684877 -0.035924 0.061988
0.110248 -0.057831 0.087079
-0.239593 0.013637 0.073377
0.112386 -0.070174 0.059448
-0.113636 -0.025102 -0.564141
-0.163132 -0.025063 -0.675995
0.892115 0.037713 0.037048
-0.068286 -0.086220 -0.060508
-0.462121 0.037789 -0.088787
0.820935 -0.075521 -0.020938
0.302158 0.045861 -0.060478
0.857804 0.056620 0.029665
0.139347 -0.110086 -0.156571
0.402794 -0.061544 0.038432
-0.120122 -0.062639 -0.079825
-0.628069 0.017074 -0.021795
-0.680690 0.071005 0.020700
-0.526076 -0.011120 0.024793
0.671428 -0.064770 0.025230
-0.607068 0.040359 0.262437
0.793564 0.071060 -0.022533
0.054043 -0.040629 0.173473
-0.557671 0.104130 0.008091
-0.017801 -0.025187 0.370583
-0.549060 0.173153 -0.006666
-0.052401 0.066996 -0.038935
-0.166988 -0.046911 -0.082108
-0.191699 -0.026885 0.683861
-0.465734 0.079628 0.018082
-0.358210 -0.053226 0.018237
0.118965 -0.039586 0.252957
-0.015504 -0.035205 -0.258325
-0.645456 0.263666 -0.006666
-0.513455 0.037289 -0.070165
-0.288761 -0.004586 -0.069995
-0.582488 0.040359 0.222287
0.324099 0.064885 0.043256
0.863702 -0.010531 0.056254
0.773148 0.059954 -0.044635
-0.207031 0.058238 0.050964
-0.426821 0.057505 -0.046599
0.223900 0.032070 -0.067818
0.027612 -0.038774 -0.273310
-0.581346 0.050498 0.251433
0.950532 -0.028750 -0.019716
-0.664181 0.096142 -0.006544
-0.578994 0.176223 0.007865
-0.130781 -0.055967 -0.087262
-0.277135 -0.054129 0.040326
-0.037923 0.067421 -0.038192
0.716763 -0.063671 -0.026659
0.377158 -0.043655 -0.079684
0.009777 -0.132393 -0.041909
0.147828 0.073915 -0.024927
-0.531566 0.052776 0.098211
-0.004531 -0.032087 -0.497512
-0.579334 0.049768 -0.108223
-0.350175 0.060902 0.045539
0.035413 -0.042295 -0.227263
-0.280027 -0.039199 -0.055206
-0.520024 0.027731 -0.057118
0.712369 0.046716 -0.059893
0.045582 -0.024360 0.273627
0.185857 0.005229 0.076193
0.029685 -0.061634 0.082545
-0.629135 0.048680 0.232076
0.055174 -0.084951 -0.022560
-0.286058 0.038305 0.064706
0.013639 -0.142750 -0.029391
0.663073 0.073668 0.026722
0.158380 -0.081328 0.153042
0.222450 -0.038602 0.117621
-0.624054 0.228589 0.007866
0.006271 -0.023840 0.396106
0.062874 -0.084924 0.023810
-0.002714 -0.024154 -0.432930
0.240979 -0.109119 0.201103
-0.070251 0.074151 0.025555
0.072368 -0.062022 -0.187910
-0.522225 0.049370 -0.181826
-0.633654 0.040359 0.280909
0.120180 0.033526 -0.067201
0.268095 -0.069494 -0.055876
-0.042480 -0.054486 -0.088979
0.060141 0.024820 -0.070598
0.626197 -0.010915 0.072640
-0.084509 -0.038888 0.506190
0.768587 -0.101688 0.010997
-0.464613 0.074138 -0.023374
0.640243 -0.013985 0.071997
0.151638 -0.069513 0.014841
0.156466 -0.095374 0.150617
-0.026313 -0.026065 -0.361108
0.255079 -0.069513 -0.006797
0.847419 -0.066846 0.025798
0.117252 -0.022793 -0.210189
-0.097895 -0.075717 -0.052256
0.105729 -0.038133 0.293214
0.633526 0.008882 -0.073153
-0.547584 0.053319 0.135831
-0.106618 -0.027310 0.623971
0.878070 -0.000579 0.053799
0.449432 0.031610 -0.067994
-0.587639 0.052622 0.230252
0.383178 -0.026702 -0.077037
-0.126520 -0.038377 0.642296
0.024931 -0.032218 -0.453316
-0.067301 -0.138635 -0.055476
-0.023138 -0.123558 0.050163
0.254381 -0.011934 -0.086112
0.005040 -0.039199 -0.430042
-0.092166 -0.026450 0.096802
0.124297 0.067125 -0.038709
0.042705 0.047573 0.060503
-0.583003 -0.000387 0.006553
-0.144239 -0.026931 0.678100
-0.039453 -0.026544 0.376994
0.363059 0.027173 0.070894
-0.012899 -0.039104 -0.369290
0.639187 -0.068239 -0.009215
0.388428 -0.040574 0.074207
-0.118294 -0.028864 -0.498394
-0.569373 0.040359 -0.186409
-0.610734 0.117331 -0.006671
-0.687749 0.040943 -0.320871
0.610808 -0.025949 0.067550
-0.505485 0.040359 -0.099121
0.778071 -0.107162 -0.007401
0.509021 0.053620 0.055737
0.881861 0.031127 0.044506
0.158567 0.007004 0.075345
0.328915 0.008874 -0.073540
-0.493454 0.055934 0.055539
-0.298871 -0.021453 0.065622
-0.623609 0.243364 0.007866
-0.318345 0.077027 0.013443
0.115322 -0.062670 0.213553
0.334589 0.032135 0.068991
-0.304270 0.067477 0.037662
0.037661 -0.026026 -0.165458
-0.198657 0.007047 -0.073134
0.042806 -0.025403 0.225014
0.078170 0.078347 0.005581
-0.627342 0.316833 -0.006666
-0.672616 0.253928 -0.006668
0.393337 -0.011199 0.073606
0.342561 0.026581 -0.069923
0.077562 -0.023272 0.290997
0.364463 -0.069511 -0.025889
0.477602 0.055845 0.053795
-0.650759 0.217791 0.007867
0.170459 -0.032912 -0.242326
0.062340 -0.040233 0.329214
-0.042708 -0.025604 -0.404298
0.023404 -0.024415 -0.314747
-0.198668 -0.033877 -0.657906
-0.333586 -0.042944 0.046481
-0.222927 -0.040183 -0.057611
-0.146130 -0.025587 -0.667729
0.017174 0.067600 -0.037878
-0.002414 -0.023951 0.423456
-0.421418 0.036931 0.063689
0.699515 0.056482 0.053239
-0.527934 0.119700 -0.006668
-0.033343 -0.069559 0.071766
0.410780 -0.069256 -0.000498
-0.562590 0.180904 0.007864
-0.010565 -0.101699 0.055027
0.459267 0.082326 0.008954
0.860004 -0.062910 0.021473
-0.594250 0.049877 0.163127
0.085189 -0.039798 0.301449
0.687718 0.009069 0.074327
0.014610 -0.042428 0.103419
0.899891 0.010151 0.046029
0.015075 -0.028418 -0.148812
0.640470 -0.068887 0.004987
0.146844 -0.022331 0.161220
0.007334 -0.156754 -0.051684
-0.086130 -0.030527 0.408120
0.685463 0.077402 -0.011869
0.051752 -0.091068 -0.009133
0.010746 -0.037831 0.274804
-0.331184 -0.054750 -0.027546
0.099775 -0.046209 -0.151288
-0.564594 0.051262 -0.113404
0.166364 0.044865 -0.061161
0.270183 -0.069513 -0.014434
0.109348 -0.022296 -0.133689
0.217620 0.077876 -0.008397
-0.073010 -0.024960 0.489280
0.601906 0.045131 -0.060978
0.038670 -0.087722 -0.047144
0.293302 -0.008531 -0.082698
-0.593220 0.118893 -0.006670
-0.174880 0.069146 -0.035165
0.757591 -0.154637 -0.015125
0.056848 0.010682 -0.073200
0.341017 -0.022033 -0.092764
0.755209 -0.144374 -0.001587
0.106590 -0.028166 0.313292
0.236280 0.057210 0.052496
0.040208 -0.038294 -0.142228
0.020528 -0.025939 -0.268524
-0.049569 -0.085134 0.062110
-0.371874 -0.038776 -0.039523
-0.502500 0.051296 -0.145089
0.193234 -0.069897 0.216275
0.222809 -0.015733 -0.090726
-0.252661 0.055695 -0.051777
-0.178151 -0.006319 0.075626
-0.726145 0.059843 -0.017560
0.447209 -0.031194 -0.063854
-0.548995 0.069403 0.033211
0.056900 -0.039398 -0.136323
0.068458 0.013565 0.073856
0.055193 -0.039621 -0.242210
0.014457 -0.146899 0.041050
0.019171 -0.039001 0.301022
0.750767 -0.046068 0.053547
0.127854 -0.022433 -0.174063
0.206133 -0.024281 -0.119516
0.015841 -0.039941 0.356129
0.479316 -0.068778 0.005965
-0.212153 -0.055152 0.044377
0.138786 -0.038989 -0.238167
0.291695 0.011604 -0.073026
-0.418116 -0.016105 -0.049653
-0.188970 0.047143 0.060665
-0.508363 0.133998 0.007864
0.186901 -0.092954 -0.226421
0.591934 0.008443 -0.073211
0.601438 0.021129 -0.071360
0.035101 -0.039018 0.387543
0.226392 -0.038369 -0.143266
0.241470 -0.085108 -0.183299
-0.607673 0.026957 -0.038324
0.897340 -0.038344 0.035251
0.808249 -0.072294 0.025494
-0.066179 -0.032932 0.357307
-0.720881 0.044637 0.019200
0.198554 -0.069513 0.024486
0.127843 -0.124656 0.175117
0.924230 0.040591 -0.020754
-0.188000 -0.024532 -0.693046
-0.230940 0.029373 -0.068466
-0.497566 0.073083 0.026965
0.137470 -0.022229 -0.159612
-0.001932 -0.036035 -0.240643
-0.126588 -0.037671 -0.648443
0.216539 -0.131059 -0.189240
-0.094414 -0.079387 -0.002187
-0.398822 0.041694 -0.056177
0.407476 -0.007891 0.073235
0.911437 -0.035426 0.032305
0.099320 -0.040828 -0.248801
-0.080755 -0.040578 -0.546391
-0.075702 -0.153196 -0.040517
-0.134253 -0.039060 0.615836
0.834072 0.071721 -0.001855
0.080010 0.007838 -0.073748
-0.036311 -0.104593 0.049792
0.114720 -0.048504 0.152362
-0.177894 0.069950 0.034908
-0.172091 -0.038499 0.667817
-0.092538 -0.034886 0.422547
-0.596090 0.040359 0.227900
-0.396874 -0.038911 -0.030886
0.222014 -0.115699 -0.214568
-0.072974 -0.134234 -0.033829
0.070349 -0.025914 0.344057
0.698002 -0.035756 -0.060911
-0.522826 0.112395 0.007866
-0.606874 0.040361 0.105834
-0.147846 0.046921 -0.059752
0.071710 -0.040567 -0.286563
-0.140954 0.052039 0.057117
0.745908 -0.006526 0.073348
0.059209 -0.059765 -0.083575
0.895560 0.038691 -0.034002
0.300530 0.078783 -0.000487
0.071808 0.060721 0.048510
0.069506 -0.045739 -0.217025
-0.411771 0.044460 0.056623
-0.114786 0.050297 0.058506
0.901850 -0.054116 0.016604
0.044969 -0.024006 -0.292746
0.496328 -0.040977 0.058350
0.713332 0.078416 -0.003761
-0.240831 -0.046982 0.052856
-0.210806 0.013600 -0.072341
-0.428427 -0.035612 0.024261
-0.066214 0.065862 -0.040738
0.346072 0.004117 -0.074941
0.008881 -0.026366 0.282390
-0.124902 -0.059720 0.084819
0.866013 0.064681 0.010751
-0.030699 -0.037850 -0.500682
-0.382532 -0.042739 -0.029907
-0.176122 0.078262 0.006288
0.845395 0.066891 0.015322
-0.006752 -0.026107 -0.320046
-0.610012 0.293309 0.007864
-0.198479 -0.063676 0.033019
-0.007466 -0.032792 0.213685
-0.092293 0.042721 -0.062629
-0.540817 0.056524 0.049032
0.022360 0.077648 -0.010067
0.033372 -0.039639 0.301750
-0.026800 -0.152600 0.055215
0.720928 0.056435 -0.052082
-0.086699 -0.039314 0.530079
0.779712 -0.008328 0.070424
-0.082502 -0.026042 0.477923
0.415362 -0.019851 0.070110
-0.181327 -0.019581 -0.720383
0.231434 -0.026770 0.117721
-0.010950 -0.037479 -0.475251
-0.618133 0.211985 -0.006668
-0.615996 0.260473 0.007864
-0.144345 0.078810 0.008070
-0.523647 0.104001 -0.006911
0.770695 -0.021565 0.067414
0.865467 -0.066015 -0.009298
0.127659 -0.067504 0.070542
0.731920 -0.030155 -0.064386
-0.553241 0.204520 -0.006666
-0.037574 -0.150221 -0.054701
0.547004 -0.057952 -0.038210
0.159902 -0.129120 -0.210793
0.249394 -0.030132 0.121421
-0.329932 0.025104 0.068342
-0.132253 -0.023061 -0.094206
0.011948 0.048850 -0.058411
0.137279 -0.076219 0.160230
0.770353 -0.082976 0.020742
0.895092 0.047887 0.026989
0.845014 -0.050262 -0.038282
0.196049 -0.042352 0.131559
-0.540426 -0.011555 0.008290
-0.559319 0.035650 0.061384
-0.448783 0.041056 -0.090121
0.367232 0.013855 0.073702
0.236122 -0.051544 0.092627
0.398847 -0.049513 -0.060211
-0.548668 0.058353 -0.044818
0.225731 -0.054055 0.168634
0.156340 -0.064729 0.077383
-0.342264 0.049114 0.056607
0.291525 -0.067549 -0.069187
-0.544964 0.074765 -0.023876
-0.135683 0.021728 0.072457
-0.022438 -0.024845 -0.388147
0.765051 0.069449 0.033233
0.124142 -0.021920 0.126441
0.813917 0.021077 0.064799
0.155469 -0.069513 -0.026653
0.110041 -0.118232 -0.202938
0.413847 0.078069 0.008055
-0.431496 0.047032 0.068100
-0.067738 -0.123539 -0.025928
0.394866 -0.068490 -0.015027
0.029871 -0.025461 0.400417
-0.266893 -0.022222 0.067565
-0.175603 -0.023432 0.721780
-0.311108 0.049099 0.057548
-0.065095 -0.039403 0.534293
0.743526 -0.070136 -0.026473
-0.050777 -0.018912 0.093387
0.989857 -0.018283 0.008909
-0.466835 0.019923 0.064893
0.268566 0.000450 -0.077281
-0.062685 -0.024590 0.528810
0.175548 -0.027894 -0.216564
-0.219503 0.035546 0.067189
0.136348 0.078606 0.003262
0.548059 0.053199 0.056105
-0.546203 0.126409 -0.006668
0.040108 -0.037470 -0.398506
-0.692985 0.031430 -0.013089
0.094659 -0.105719 -0.164522
0.058879 -0.042091 -0.225359
0.108397 -0.058488 -0.212490
-0.450823 0.018126 -0.064535
0.111958 -0.025371 0.275734
0.085024 -0.046647 -0.153393
-0.493083 0.040359 0.119112
-0.231924 -0.061021 -0.032689
-0.290510 -0.064764 0.004879
0.291801 0.016751 0.073296
0.727736 0.063676 0.044781
0.915534 0.056601 0.003331
0.170469 -0.026420 -0.203400
0.696043 0.025188 0.071655
0.873451 -0.056074 0.025094
-0.370762 0.035697 0.061896
-0.384745 -0.048202 -0.014935
-0.638176 0.064468 -0.029311
0.909740 0.051893 0.015457
-0.032054 -0.025193 0.492176
-0.690974 0.050864 0.027895
0.024024 -0.039751 -0.326141
0.189441 -0.069351 0.059403
-0.058561 -0.038875 -0.452057
-0.494735 0.156360 0.000756
0.087738 0.076038 -0.018420
0.281763 -0.069504 -0.052042
-0.655389 0.025332 0.022566
-0.229976 -0.034736 0.062686
-0.591974 0.193832 -0.006667
0.277466 -0.069513 0.015767
0.004634 -0.027209 0.455388
0.213816 -0.069513 -0.034577
0.715050 -0.044808 0.054986
0.238172 -0.067443 -0.069564
0.006249 -0.125587 -0.026315
-0.000879 0.078096 -0.006615
0.231611 -0.069513 0.007141
-0.586337 0.040359 0.076526
0.247945 0.068556 -0.036202
-0.011330 -0.025191 -0.355390
0.651453 0.027919 0.070608
-0.548220 0.040359 0.193420
-0.030022 -0.037789 0.358162
-0.530292 0.005159 -0.041816
0.468034 0.010870 -0.072893
-0.112827 -0.039238 -0.597159
0.765648 -0.078038 -0.021861
-0.190272 -0.052891 0.061990
-0.010627 -0.039992 -0.428365
-0.337080 -0.033863 -0.053228
-0.514384 0.126468 -0.006667
0.126881 -0.069497 0.056034
0.192024 -0.125756 0.163452
-0.138411 0.061680 0.047300
0.219409 0.067311 0.039583
0.653603 0.074980 -0.021849
0.316921 0.073878 -0.025016
0.626310 -0.036319 0.061704
-0.600183 0.048070 -0.136074
-0.071726 -0.158688 0.035209
0.034925 -0.084526 0.041200
0.132014 0.059143 -0.049169
-0.619915 0.040359 0.242429
0.496445 -0.066401 0.020042
-0.668672 0.288337 0.007864
-0.058762 -0.025105 -0.454054
0.836471 -0.056890 0.034105
0.014353 0.074027 0.025855
-0.705081 0.309106 0.001104
-0.037372 -0.090896 -0.058242
-0.005154 -0.090148 0.060220
0.525483 0.024140 -0.070853
0.094712 0.036449 0.067137
0.563060 -0.013982 -0.070799
-0.146393 -0.031688 -0.092216
-0.210587 -0.064895 0.024990
0.089991 -0.025483 -0.308838
-0.639577 0.040359 -0.257487
-0.539811 0.052073 -0.190114
-0.167719 -0.038958 0.684030
0.001139 -0.032500 0.141601
-0.546641 -0.007421 -0.019292
-0.417505 0.016120 0.061543
0.170362 -0.042488 -0.113444
-0.088293 -0.068508 0.072797
-0.095505 -0.024590 0.574120
-0.108272 -0.069843 0.036005
-0.082527 -0.029268 0.602000
-0.697139 0.029440 0.000173
0.537576 0.020998 0.072580
0.213170 -0.069513 0.021026
-0.277665 -0.059952 -0.028325
-0.105769 -0.064163 -0.077221
-0.075515 -0.031684 0.096858
0.775163 0.020934 0.069838
-0.048984 -0.028434 -0.355254
0.051987 -0.060999 0.083301
-0.071175 -0.038379 -0.459740
-0.104854 0.042408 0.064041
0.313768 0.055228 -0.053136
0.178667 -0.062434 -0.080190
0.178684 -0.033209 -0.230177
0.187253 0.070114 0.034672
0.870986 -0.024555 0.050476
0.423875 -0.025911 -0.066370
0.044579 0.005134 0.076238
-0.037681 -0.033508 0.292187
0.793529 0.075788 0.004290
0.076588 -0.057314 -0.173056
-0.058866 -0.024607 0.474533
0.289224 -0.069513 0.044972
0.395192 0.078199 -0.005697
-0.146119 -0.035967 0.548991
-0.137339 0.079775 -0.009806
-0.563062 0.051815 0.128916
0.144788 -0.087409 0.155220
0.188277 -0.052126 -0.210024
-0.527848 0.098917 0.008893
-0.518798 0.188788 0.006310
0.137721 -0.020529 -0.105367
-0.038218 -0.039002 0.416744
-0.120027 -0.024762 0.595979
0.033014 -0.026285 -0.402741
-0.107958 -0.038709 0.533324
-0.028102 -0.041549 -0.394826
0.407948 0.009477 0.074274
0.060903 -0.024326 -0.173346
-0.210145 0.008767 0.074176
-0.086846 0.059216 0.050287
0.073487 -0.056506 -0.087321
0.134137 0.036950 -0.065723
0.091628 -0.121141 0.192484
-0.513748 0.040359 0.130150
-0.636479 0.040359 -0.271188
0.856468 -0.070179 0.007376
-0.019031 -0.039903 -0.443826
-0.001294 -0.070816 -0.069294
-0.033291 -0.024215 -0.477751
-0.412998 -0.035685 -0.030127
-0.496789 0.041933 0.152142
0.210680 -0.027971 0.166072
-0.122454 -0.006835 0.082716
-0.204314 -0.068134 0.011181
0.070179 -0.079720 0.064344
0.939671 0.030232 0.022868
-0.008035 0.025425 0.071564
-0.070658 -0.039569 -0.528954
-0.303238 0.077282 0.011734
0.136807 -0.022084 0.147061
0.030398 0.032291 0.068931
-0.595365 0.238329 0.007865
-0.336633 0.062013 -0.043557
0.286574 0.025777 -0.070231
-0.134924 -0.066163 0.073781
0.156800 -0.023309 0.180649
-0.128612 0.023536 -0.070954
-0.306909 0.004242 0.071280
0.620887 0.077476 0.012531
-0.017672 -0.027518 0.309204
0.762216 -0.022446 -0.066617
0.195416 -0.028038 -0.189424
0.283327 -0.043684 0.096172
0.767374 -0.119075 -0.008898
0.274676 0.037438 -0.065512
-0.188475 -0.018509 0.722520
0.237220 -0.116807 -0.167170
-0.023907 -0.029529 0.279278
0.621938 0.073631 0.026809
-0.055955 -0.026321 0.416315
0.031807 -0.021661 0.100063
-0.183209 -0.034501 0.626059
-0.086853 -0.038951 -0.571972
0.107772 -0.065721 -0.074431
-0.165371 0.052266 0.056919
0.176348 -0.021981 0.118812
0.327949 0.022612 -0.071110
-0.396494 -0.009767 0.058086
0.973839 0.012137 -0.010446
-0.610230 0.041686 -0.146202
-0.243000 0.076414 0.016220
-0.051995 -0.065460 -0.075603
-0.594543 0.172848 -0.006668
-0.191931 -0.027238 -0.678570
-0.209137 -0.033232 0.681678
0.164938 0.072386 -0.028599
0.869487 0.048847 -0.033663
0.328236 -0.010824 0.086183
-0.091419 -0.026386 0.488509
-0.027427 -0.025829 -0.490056
0.119916 -0.086024 -0.213888
0.046513 -0.039513 0.215425
-0.464746 0.099135 -0.007604
-0.556460 0.052989 0.054052
-0.059675 -0.039598 -0.496659
0.658294 -0.067877 0.013072
0.598700 -0.060032 -0.034501
0.859598 -0.048680 -0.036186
0.014158 -0.036240 0.151499
0.116092 -0.037714 0.283264
0.039610 -0.023952 -0.366145
0.635869 0.042811 -0.062568
-0.641845 0.041696 0.247424
-0.095584 -0.025659 -0.592165
-0.225364 0.015993 0.073146
-0.419697 -0.041123 0.013957
0.122284 -0.123932 -0.175753
0.264909 0.019379 0.072853
0.521988 -0.041810 0.057708
0.525756 -0.068238 -0.009220
-0.175725 -0.010320 -0.075501
0.672512 0.007603 0.074474
0.380724 -0.012788 -0.076181
0.113296 -0.082351 0.166058
-0.562535 0.218010 -0.006666
0.024433 -0.037800 -0.243852
0.042316 -0.040430 0.350350
-0.032385 -0.105069 -0.048167
0.071474 -0.065194 -0.076007
0.961638 -0.034420 -0.010758
0.492528 0.029275 -0.068890
0.028495 -0.038255 0.252965
0.498637 0.068053 -0.037085
0.545509 0.009733 0.074240
0.414240 -0.055517 0.044239
0.154880 -0.129307 -0.167369
0.389615 -0.039501 -0.072218
-0.389957 -0.041939 0.029232
-0.524807 0.085478 0.015198
-0.520026 0.052019 0.165338
0.204974 0.054616 0.054868
0.068291 -0.040323 0.145105
-0.223790 0.063478 -0.043136
-0.584610 0.035869 -0.055333
-0.611632 0.082796 -0.012645
0.413717 0.042197 -0.062989
0.377181 0.077801 -0.008943
0.816826 0.023048 -0.062505
0.014078 -0.039046 -0.312112
0.319203 -0.014526 -0.088686
-0.110071 -0.039596 -0.559709
0.144943 -0.042382 0.123891
0.122550 -0.022301 -0.156568
-0.624482 0.043172 -0.312075
0.185824 0.052305 0.056885
0.137377 -0.069513 0.011109
0.061464 0.075224 -0.021059
-0.094822 -0.024549 0.557745
0.829397 0.068640 0.017694
0.776055 -0.127853 0.018529
0.198831 -0.069513 -0.009837
0.187786 -0.018968 0.099048
0.005023 -0.039153 -0.335236
0.040120 -0.025862 -0.151118
-0.100227 -0.025068 0.590702
-0.017412 -0.038295 -0.097532
-0.608499 0.229427 0.007865
-0.330332 -0.006902 0.068549
0.063198 -0.046195 -0.177410
0.107978 -0.022493 0.154795
-0.119108 0.047800 -0.059150
-0.024189 -0.143360 -0.054839
0.262819 -0.069513 0.016360
-0.482711 0.040359 -0.103588
-0.685464 0.080923 0.000844
-0.717425 0.042564 -0.017521
-0.309308 0.077411 -0.009751
-0.116885 -0.037955 -0.531654
0.198769 0.077441 0.012785
-0.424314 0.027147 -0.062212
-0.662442 0.127479 0.007869
0.205539 -0.042948 0.142118
0.463167 0.038561 -0.065027
-0.369740 0.076659 -0.013931
0.089620 -0.040256 0.287884
-0.491789 -0.024212 -0.002223
0.101160 -0.035080 0.337122
0.664445 0.011181 -0.072853
0.824725 -0.075985 0.009160
0.195384 0.067414 -0.038203
0.651906 -0.028774 0.066240
-0.656788 0.107745 -0.006624
-0.642085 0.016626 -0.012159
-0.208509 0.074794 -0.021376
-0.564944 0.040359 0.205117
-0.009244 -0.024611 -0.371490
-0.330586 0.045426 -0.058310
-0.581571 0.115360 0.007868
-0.635524 0.034202 0.034635
0.144249 -0.022045 -0.145997
-0.289375 0.065540 0.040920
0.927319 0.050323 0.007721
-0.625727 0.040359 0.264884
0.595150 0.067353 -0.038310
0.138464 -0.044939 0.138249
0.005741 -0.021288 0.097497
0.099823 -0.117093 -0.173635
0.025775 -0.038013 0.414758
0.276118 -0.067316 -0.070015
-0.421141 0.058625 0.045587
0.886087 -0.062853 0.006491
-0.028491 0.075027 -0.021698
0.671453 -0.041745 -0.056559
0.136901 -0.023384 -0.211031
-0.057754 0.016387 -0.072159
0.347107 0.022029 0.072407
0.184862 -0.094601 -0.148436
-0.264461 -0.065566 0.017426
0.806180 -0.007604 0.067774
-0.651235 0.297425 -0.006666
-0.491322 0.068890 -0.032380
-0.611308 0.174533 0.007867
0.575061 -0.005269 -0.072382
0.177882 -0.020683 -0.105119
-0.590815 0.157665 -0.006669
-0.285906 0.011475 0.072091
-0.222497 -0.050445 -0.048225
0.858550 0.016879 0.056415
0.163100 -0.136281 0.179413
0.413081 0.054256 -0.053984
0.678367 0.042092 0.064258
-0.088114 -0.078503 0.039594
0.841943 0.026334 0.057416
0.940389 -0.037412 0.018960
0.007295 -0.036079 0.207220
0.100406 -0.023139 0.229234
-0.017869 -0.024080 0.425836
-0.193518 -0.019362 -0.705063
-0.136818 0.055309 -0.053065
0.261854 0.061037 0.048111
-0.284856 0.057143 0.051151
-0.323887 -0.060715 -0.010219
0.150219 -0.043319 -0.128637
-0.329780 -0.061091 0.003364
0.757499 -0.136592 0.014225
-0.183632 -0.036692 -0.718031
0.043817 -0.025588 -0.134922
0.104885 0.060154 0.049225
0.202535 -0.026283 -0.153961
-0.577300 0.040305 -0.072329
0.034812 -0.024325 0.297494
0.098594 -0.070440 0.068886
0.206209 -0.118479 -0.215933
0.044454 -0.051536 0.092634
-0.547204 0.052735 0.120901
0.002602 -0.133330 -0.055012
0.698182 0.078834 0.001235
-0.552776 0.035549 -0.061568
-0.466690 -0.017722 0.037502
0.243413 -0.098851 -0.183742
0.070843 -0.024669 0.330099
0.122148 -0.052520 0.222439
-0.041772 -0.028459 0.536259
0.107453 0.076460 0.018253
0.503248 0.059803 -0.048443
0.130141 -0.052148 0.151590
0.351657 -0.069513 -0.011910
-0.166404 -0.032105 0.584520
0.269367 -0.069513 0.043696
0.161046 -0.025702 0.208549
-0.445539 0.018402 0.065614
-0.150498 -0.034238 -0.549685
0.239886 -0.075192 0.204623
-0.479447 0.109433 0.007864
0.020027 -0.027444 0.210874
-0.030337 -0.039585 0.430177
0.021953 -0.027334 0.195938
0.049920 -0.025578 0.371509
0.167780 0.057220 0.052485
0.797388 -0.064010 0.030625
-0.668013 0.328278 0.000508
0.082413 -0.023302 -0.155920
-0.053710 -0.039533 -0.475839
0.001322 -0.032820 -0.131581
-0.207441 -0.018914 -0.704870
0.304662 -0.024858 0.096784
0.128877 -0.070153 -0.213981
0.089650 -0.062558 0.209747
0.024878 -0.031452 0.453587
0.177783 -0.068584 0.066690
0.941943 -0.024452 0.027051
0.826237 0.034803 0.056961
-0.116291 -0.039034 0.576421
-0.646425 0.125245 -0.006672
0.776163 0.006119 0.072024
0.187840 0.078798 -0.000352
0.767987 0.068456 -0.033280
0.177231 -0.068312 -0.066463
0.058671 -0.040226 0.284716
0.605297 0.048310 0.059998
0.718694 -0.067852 -0.012710
-0.476892 0.065153 -0.038597
0.198934 -0.034272 0.202319
-0.610055 0.061291 0.035913
-0.109095 -0.029903 -0.642906
0.059968 -0.024484 0.227813
-0.091703 -0.025172 -0.518212
-0.224666 0.054486 0.054394
0.112276 -0.022935 0.221178
-0.575055 0.051955 0.171260
0.411484 0.063740 -0.043503
0.014030 -0.038403 0.288238
0.545081 0.022795 -0.071079
-0.138847 -0.006057 -0.079796
-0.445825 -0.036193 0.001344
-0.192929 0.059550 0.049693
0.056643 0.043979 0.062965
0.191823 -0.097818 0.227258
0.259535 0.074280 -0.024045
-0.058163 -0.027376 -0.386214
-0.569418 0.040359 -0.106601
0.427844 0.077568 0.011856
0.205084 -0.074123 -0.156610
0.118353 -0.023570 -0.241833
-0.558993 0.053455 -0.198158
-0.296232 -0.005766 0.070638
0.049431 -0.010966 -0.085254
-0.635389 0.040371 -0.207548
0.624634 0.062910 0.045748
-0.068006 -0.025067 -0.545021
0.031477 -0.023630 -0.352796
-0.367840 -0.049509 -0.021724
0.091420 -0.040789 0.261689
-0.634526 0.200528 -0.006668
-0.711711 0.053777 -0.023440
-0.592818 0.144027 0.007867
-0.128653 -0.038937 -0.634176
0.073054 -0.040664 0.293790
-0.518693 0.053326 -0.090706
-0.406340 -0.043530 -0.015423
0.489861 -0.062776 -0.028800
0.232947 -0.085584 -0.215233
-0.001369 -0.036439 -0.255585
-0.086084 -0.035834 -0.425433
-0.002219 -0.039010 0.444639
0.121907 -0.069513 0.021732
-0.352819 0.076655 0.015584
-0.083321 -0.033563 -0.610560
0.408832 0.073648 0.026769
0.173760 -0.042592 0.116674
0.363721 0.066642 -0.039557
0.180470 -0.131936 -0.207771
-0.158554 -0.026793 0.617618
0.017619 -0.028321 0.131935
0.094066 -0.113878 0.206826
-0.577049 0.040359 0.192244
0.069356 -0.095575 0.194151
-0.655988 0.307383 0.007864
-0.096666 -0.024331 -0.095374
-0.090894 -0.024639 0.540151
0.087358 -0.022994 -0.136436
0.030750 0.017473 0.073174
-0.617362 0.150799 -0.006670
-0.530432 0.040390 0.200955
-0.525141 0.052404 -0.078369
0.192091 -0.133872 0.199867
0.470868 -0.013079 -0.070988
-0.127871 -0.069174 0.061060
-0.252100 0.073011 0.026575
-0.096127 -0.035640 -0.445234
0.094705 -0.043803 -0.229203
0.246092 -0.069500 0.054966
-0.667378 0.083014 -0.010583
0.073539 0.030728 -0.068332
-0.076927 -0.024424 0.539558
0.063880 -0.039759 0.245372
