-0.222715 -0.170800 0.282101
-0.477189 0.067710 -0.358557
0.709566 0.098926 0.204977
0.441837 0.153558 -0.008091
-0.185565 -0.146839 0.354941
0.169366 0.069339 -0.355272
-0.371366 0.125255 0.353876
-0.048346 0.324324 0.109605
0.843727 -0.004858 -0.230175
0.735863 -0.174728 0.033050
-0.002406 -0.037902 0.368001
-0.064720 -0.170898 0.333276
0.569482 0.126615 0.263499
0.079918 0.194929 -0.297206
-0.092504 -0.168640 0.338327
0.599923 -0.048004 -0.332479
-0.829678 0.168307 0.247473
-0.781021 -0.047618 0.357307
-0.364132 0.277981 0.261332
-0.396058 -0.174055 0.139001
-0.299861 0.319413 0.079630
-0.180454 -0.026768 0.369380
-0.914925 0.008132 -0.299076
0.846297 0.061529 0.048452
-0.083163 0.316995 0.219396
-0.513354 -0.035923 -0.228337
-0.754512 0.179687 0.257303
-0.454020 0.063393 0.366918
-0.018452 -0.057419 -0.359219
-0.394159 0.301718 0.093543
-0.514426 0.147719 -0.328381
-0.550420 -0.210969 0.319572
0.521680 -0.078249 0.344552
-0.559082 0.212930 -0.274939
0.812176 -0.167651 -0.248169
0.875041 -0.073064 0.226222
-0.043039 -0.171184 -0.174635
-0.958484 -0.060211 -0.201870
0.512963 0.023371 -0.361589
-0.807759 -0.148710 0.234289
0.105141 -0.171691 -0.060811
0.781758 0.089617 -0.054693
-0.639176 -0.163299 -0.134962
0.880706 -0.113290 -0.105288
-0.130738 -0.059776 -0.359643
-0.275164 -0.075762 -0.359472
-0.608348 0.003863 0.350700
0.368354 -0.176982 0.099529
0.806706 0.022025 -0.277691
0.463382 0.141997 -0.276158
0.467478 -0.070486 -0.348042
-0.374007 0.306470 0.078611
-0.422401 -0.175847 -0.084032
-0.011373 -0.171286 0.188329
-0.651508 -0.206168 -0.315583
-0.924901 0.128053 0.038563
0.334063 0.175655 0.081730
-0.169104 -0.164421 0.344091
-0.452235 0.164092 0.323842
0.738010 -0.174547 -0.222280
-0.069143 0.319156 -0.194660
-0.696519 -0.161021 0.027215
0.090335 -0.171639 0.301877
0.463253 -0.163333 0.264230
0.348845 -0.175277 -0.203669
-0.363531 0.300717 -0.178451
0.586442 0.025688 0.276454
0.654548 -0.143203 0.257897
-0.500369 -0.168813 0.020752
0.037628 0.130095 0.345278
-0.475365 -0.169806 0.034120
-0.932659 0.097319 -0.102058
0.262650 -0.172243 -0.177322
0.614829 -0.176875 -0.194812
-0.246394 0.160262 0.330926
0.464739 0.150494 -0.019786
-0.970261 -0.070492 0.000992
0.676148 0.015615 -0.362589
-0.954688 -0.083002 -0.175707
-0.361219 0.255812 0.274199
0.750920 0.015231 -0.335035
-0.049856 0.025505 0.368671
-0.267225 -0.171062 -0.267323
0.108867 -0.044362 0.367150
-0.608270 -0.096329 0.231737
0.609231 0.128667 0.062747
-0.230793 0.080639 -0.357433
-0.007125 -0.171299 0.066783
0.619867 0.015355 0.251498
-0.566595 -0.179491 -0.361135
0.137355 0.148115 0.326669
-0.086368 0.327005 0.109107
-0.890329 -0.132813 0.013789
-0.013982 0.014123 -0.360545
-0.816729 0.179856 0.163046
0.369219 0.167418 0.022021
0.644274 0.024462 -0.362561
-0.520905 -0.145836 -0.357444
-0.557015 -0.173746 -0.298646
-0.415643 0.295169 0.107091
0.168567 -0.171913 -0.013973
0.834889 0.068287 -0.034292
-0.345360 0.297364 -0.223499
-0.230403 0.324099 -0.123466
0.510905 -0.000547 0.241193
-0.138965 -0.170877 -0.174583
-0.848097 0.179644 -0.054455
0.423237 -0.057861 0.372158
-0.893863 -0.040899 -0.319278
0.904880 -0.046585 -0.072119
-0.236488 -0.170881 0.201243
-0.986945 -0.021650 0.012947
-0.194227 0.206796 -0.293363
-0.315631 -0.081904 0.367702
0.080067 0.170047 -0.308050
0.329697 0.180557 0.001036
0.496576 -0.147503 -0.311157
-0.554178 0.255245 0.079064
-0.181302 -0.091289 -0.357002
0.653784 0.111942 0.214200
-0.343311 -0.171508 -0.177845
-0.274961 0.315920 0.179847
-0.798146 -0.155913 -0.087184
0.803119 0.017228 0.296742
0.052853 0.072222 -0.356532
-0.481471 0.175373 0.314467
0.898243 -0.089296 0.116475
-0.920883 0.142294 -0.029608
0.170523 -0.171920 -0.044536
-0.813411 -0.147623 0.042709
0.030782 0.280407 -0.255795
0.086402 -0.028816 0.367827
-0.226469 -0.170822 0.224373
0.557393 -0.172786 -0.324849
-0.527248 0.129524 -0.341572
-0.877939 -0.131553 -0.277855
-0.056778 0.315761 0.216391
-0.739216 0.123672 0.332968
-0.621172 -0.191036 0.372640
0.773349 -0.171568 0.068493
-0.672164 0.198863 -0.205910
0.017127 0.037805 0.367815
-0.303112 -0.171272 -0.240465
0.316448 0.176391 0.184972
-0.049467 0.229247 0.289573
-0.368764 -0.172310 0.256748
0.506311 -0.001608 -0.232720
-0.618473 -0.215534 0.342758
0.681576 -0.002724 0.369595
-0.470119 0.267960 0.218078
0.836517 -0.115685 0.263449
-0.353219 0.149782 -0.329050
-0.256706 0.026352 0.369702
0.137031 -0.102020 -0.354929
-0.456898 -0.058773 0.373971
-0.695008 -0.097065 0.277916
-0.000128 -0.171322 0.162513
-0.051755 -0.171156 -0.059020
0.279160 0.174522 -0.270941
0.535049 0.074674 -0.357826
-0.664070 0.008913 -0.363896
0.446809 -0.179364 0.093299
0.593178 -0.104333 -0.342388
0.192858 0.245156 -0.142091
0.352345 0.065061 0.362028
0.192102 -0.171996 -0.063692
0.673034 -0.146896 0.370362
-0.301661 0.274176 0.266403
-0.359682 0.208567 -0.288393
0.237531 0.228859 -0.036207
0.522246 -0.107670 0.235400
0.561678 0.130837 0.192000
-0.011112 0.144468 0.337514
0.709413 0.103118 -0.150321
0.170243 0.255174 -0.150129
-0.329374 -0.093617 -0.358495
0.115096 -0.171726 0.143348
0.157058 -0.118562 -0.353706
-0.546598 0.114078 -0.346929
-0.696832 -0.044541 -0.279275
0.467261 0.115097 0.333674
0.621028 -0.176783 0.137318
-0.583406 -0.012927 0.231855
0.213474 -0.160964 -0.340921
0.209730 -0.172058 -0.273278
-0.587853 0.237455 -0.164424
-0.764934 -0.156387 -0.311758
-0.023892 -0.171246 -0.109541
-0.140235 0.286087 -0.251415
-0.178369 0.011241 0.369598
-0.569951 0.233121 -0.225715
-0.446339 -0.171452 0.190706
-0.818817 0.181922 -0.111502
-0.579631 -0.118399 0.351287
0.692199 -0.107281 -0.359424
-0.202732 -0.045018 -0.360630
-0.087098 0.325004 -0.138896
0.814045 -0.050953 0.321575
0.650473 -0.032075 0.233692
0.083493 0.286813 0.198279
0.653723 -0.000286 0.369965
-0.216584 0.328253 0.058210
0.198425 -0.129653 0.359099
-0.059396 0.324181 0.133280
-0.515183 0.071837 -0.359679
0.211615 -0.028694 -0.359068
-0.588313 0.230198 -0.206258
-0.514052 -0.124485 -0.229130
0.761602 0.038626 0.323504
-0.604238 0.131581 -0.335383
-0.409973 -0.175266 -0.045206
-0.722434 -0.056175 -0.363779
0.647033 -0.191270 -0.255008
-0.788740 -0.169316 0.171597
-0.064400 0.194440 0.306462
-0.424545 -0.175783 -0.237373
-0.600495 -0.206751 0.370429
-0.673281 -0.011889 0.283700
-0.862980 -0.167536 -0.177026
0.653223 0.114478 -0.260094
0.661330 -0.176186 0.084039
-0.533245 -0.155618 0.327310
0.046530 -0.171485 0.317378
-0.205190 -0.080179 -0.358524
-0.440937 -0.032022 0.379943
0.264693 0.181513 -0.292030
0.165194 -0.171901 -0.133295
-0.057095 -0.166072 -0.334874
-0.938365 -0.129796 -0.117297
-0.847711 -0.004129 0.335928
-0.253949 -0.170976 -0.319768
0.875414 -0.160101 0.088871
-0.493594 0.046063 -0.366776
-0.965709 -0.097483 -0.008302
0.133421 -0.171790 -0.028007
-0.145777 0.028656 0.369092
0.258178 0.188048 -0.262738
-0.957748 -0.141573 -0.135420
0.496037 -0.178634 0.088004
0.451941 -0.120902 0.369443
0.218414 0.237893 -0.054002
0.013324 -0.171369 0.295950
-0.139069 -0.129409 0.359252
-0.976157 -0.051008 0.062613
-0.898517 -0.181364 0.172292
0.089713 0.283108 -0.200651
0.617215 0.118084 0.257556
-0.652293 -0.205101 -0.263335
-0.656969 0.215888 -0.105141
-0.643290 0.216131 0.176543
0.040371 -0.171464 0.285161
0.539100 -0.135400 0.234996
0.593853 0.124523 -0.262070
-0.021281 -0.141150 0.355532
-0.606213 0.237360 0.070360
0.326610 -0.173621 0.015756
0.590140 -0.075403 0.339731
-0.848370 0.134888 0.299437
-0.402948 -0.174655 -0.267592
0.069976 -0.171567 0.228614
-0.644759 -0.166297 0.317460
0.325987 0.163491 0.224103
0.894046 -0.016117 -0.015691
0.670531 0.118699 0.023775
-0.323380 0.315886 0.088131
-0.701246 -0.065372 -0.301054
-0.328840 -0.145484 -0.349456
0.639242 0.116124 -0.289676
-0.125268 0.330176 -0.071958
0.034893 0.296609 -0.236221
0.388815 -0.013819 -0.363558
-0.708069 -0.158340 0.286539
0.532856 -0.178089 -0.174795
0.793920 -0.057683 0.335737
0.764924 0.043721 -0.308473
-0.390848 -0.114154 0.369198
-0.491480 0.230771 0.281319
-0.536260 -0.167387 -0.012532
0.138884 0.262805 -0.204009
-0.265986 -0.131500 -0.351120
-0.256173 0.201668 0.303493
-0.168648 0.330619 0.032204
-0.441252 0.202966 0.297059
-0.514701 -0.021570 0.237702
-0.779216 0.174908 0.258530
-0.649227 0.098649 0.353090
-0.304606 -0.143756 0.357451
-0.311487 0.273995 -0.258442
0.655474 0.072766 0.349394
0.765850 0.087579 -0.134674
-0.495806 -0.075715 -0.311372
-0.355723 -0.171759 -0.219301
0.422259 -0.179727 0.105119
-0.849707 0.043983 -0.324475
0.742767 -0.174146 -0.006378
-0.698999 0.195267 0.181974
0.651750 0.116897 0.152093
0.739979 0.063707 0.318976
-0.418881 0.046587 0.369090
-0.360913 -0.171965 -0.020856
-0.375179 -0.172593 0.083950
0.621521 0.039944 0.373287
-0.782876 0.073064 -0.331345
0.320457 0.180972 0.116180
-0.623697 0.213712 -0.238669
0.879718 -0.131480 0.175789
0.055488 0.293095 0.224691
-0.506335 -0.116061 -0.334659
-0.760158 -0.157879 -0.015189
-0.633798 0.012197 -0.319871
-0.323555 -0.171392 0.058754
0.683797 -0.042101 0.370431
0.194577 0.192462 -0.308146
-0.912925 0.053183 -0.275046
-0.111362 -0.170965 0.020789
0.823298 0.012690 -0.244495
0.532591 0.136173 0.180000
0.132893 -0.171788 -0.241083
0.381569 -0.178136 0.076942
0.162929 -0.171893 0.084555
-0.793521 -0.151456 -0.057626
0.909861 -0.054093 -0.016321
0.476706 -0.038969 0.252627
0.771818 -0.015976 -0.334609
0.498984 0.137302 -0.234701
0.330459 -0.173831 0.191873
0.890209 -0.082265 0.165747
0.781025 -0.093789 0.342458
0.418515 -0.179781 -0.032065
0.661806 -0.105410 -0.312465
-0.591774 -0.180649 -0.344140
-0.454545 0.280558 -0.158885
0.900762 -0.031508 0.068269
0.362270 0.084559 -0.349937
0.304938 -0.054371 -0.358319
0.056279 0.173069 0.315391
0.621715 0.120991 -0.267858
0.382224 0.112920 -0.332963
0.901057 -0.150084 0.006473
-0.928464 -0.115269 0.222604
0.734195 -0.020307 0.363600
-0.577136 0.247193 0.084087
-0.721182 0.036600 -0.355093
-0.619964 -0.207184 0.259587
0.653598 -0.000324 -0.360791
0.563688 -0.177632 -0.099239
-0.669248 -0.015630 0.238922
-0.460410 0.255687 -0.257476
0.350104 -0.175202 -0.330841
-0.657202 0.069128 0.365297
-0.221791 0.328061 -0.041772
-0.327450 -0.121265 0.362859
-0.595696 0.237820 -0.120342
0.679477 0.111214 -0.138906
-0.777055 0.188455 -0.088960
0.545518 -0.188417 0.249603
0.633256 -0.109727 0.231846
-0.769788 -0.155991 0.290079
-0.508976 0.256544 0.214634
0.661857 0.117874 -0.088728
-0.413946 0.280247 0.243323
0.534625 -0.064959 0.234791
-0.630166 0.159134 0.315083
0.800081 -0.151446 0.317867
0.073475 0.045739 -0.358452
0.296853 -0.172363 -0.198329
-0.458239 -0.116128 0.252059
0.323536 0.157940 0.256074
-0.076176 0.236420 -0.278241
0.082085 -0.100064 0.363630
0.573125 -0.161800 -0.226619
-0.583450 -0.027164 0.340617
0.647264 0.123444 0.005353
0.331187 -0.173870 -0.254533
-0.296177 0.315230 -0.152220
-0.726212 0.060226 -0.344204
0.380089 0.072719 0.360958
-0.631912 -0.163587 0.176445
-0.676771 -0.054035 0.233126
-0.576358 -0.165794 0.118914
-0.951897 0.061449 -0.004563
-0.753553 0.079085 -0.335502
-0.213643 0.315716 0.224472
0.622579 -0.176760 -0.125430
0.731413 -0.171934 -0.299155
-0.356263 -0.133891 -0.352570
-0.526270 -0.200759 0.313204
-0.787481 -0.018404 -0.342911
-0.146937 0.329454 -0.091022
-0.624913 -0.096032 0.350825
0.530258 -0.111876 0.347735
-0.668805 0.197602 -0.244370
0.830570 0.071117 0.028972
0.284836 -0.079415 -0.355913
0.661997 -0.164446 -0.359835
0.049012 0.111623 -0.347565
-0.552163 0.016081 -0.265582
-0.526740 -0.186580 -0.363308
-0.546440 0.016033 0.281537
0.371040 0.145221 0.314692
0.333713 0.177393 -0.031878
0.265897 0.039262 -0.356963
0.166938 -0.171907 0.059681
0.186924 -0.171978 0.109471
-0.293322 -0.002663 -0.362744
-0.605246 0.238709 -0.010720
0.024711 -0.171408 -0.017352
0.540316 0.139785 0.047703
-0.450787 0.284066 -0.122586
0.245216 0.031501 0.366101
0.441860 -0.141267 -0.299994
0.137676 0.062127 -0.356549
-0.728246 -0.153277 0.230342
-0.236653 0.250727 -0.271341
0.594665 -0.147907 -0.225131
0.436527 -0.179516 -0.166025
-0.261690 0.280842 0.263205
-0.557562 -0.166541 -0.170391
0.430288 0.150845 0.187505
0.273921 0.206046 -0.111300
-0.161805 -0.170803 -0.132179
-0.045591 0.314467 -0.209265
0.444276 0.152983 -0.037886
-0.263952 -0.171042 -0.293407
-0.081773 -0.160658 -0.339611
0.428108 0.079035 -0.351811
-0.305830 0.090647 -0.355608
0.371220 -0.106277 0.366226
-0.643190 -0.158615 -0.322337
-0.757573 -0.010786 0.362693
-0.129370 -0.170907 -0.127007
0.199598 0.246859 -0.068288
0.519611 -0.053181 -0.342252
0.469158 -0.173122 0.241839
-0.785795 0.069585 0.339543
-0.125249 0.152724 0.333779
-0.836046 0.158239 -0.260928
0.046071 0.203340 -0.293573
-0.512121 0.024331 -0.371952
0.662229 -0.176173 0.189663
0.519631 0.143003 0.020058
-0.798552 -0.113407 0.345791
0.763641 -0.173064 0.316714
-0.283656 0.112116 -0.351925
-0.626425 0.226366 -0.126911
0.885324 -0.013197 0.089317
0.018334 0.312421 0.147409
-0.512600 -0.168327 -0.171143
0.371962 0.156622 0.240209
0.021048 0.016298 -0.360264
0.481427 0.141311 -0.216120
-0.445997 -0.139455 0.323879
-0.642245 0.014834 -0.343499
0.596583 -0.215431 0.337661
-0.829733 0.172310 0.222534
-0.393249 -0.173815 -0.088526
-0.043546 0.323112 -0.110691
-0.461074 -0.004257 0.380713
-0.091607 0.207919 0.300251
0.835933 -0.129066 0.286982
0.850814 -0.104695 0.214747
-0.396819 -0.089684 0.370875
0.694881 -0.144958 0.333372
0.651028 -0.072923 -0.328186
-0.238599 -0.162249 -0.338610
-0.938726 0.042100 -0.219630
0.145935 0.040207 0.366482
-0.467732 0.272938 -0.183337
-0.771953 -0.155612 0.008005
-0.020394 -0.171257 -0.220303
0.527154 0.019434 0.366848
0.860697 -0.162093 -0.126662
-0.573911 0.143985 0.335603
-0.125940 0.164647 -0.315132
0.673350 0.105289 -0.239501
0.257729 -0.172226 -0.128639
-0.525816 0.101593 0.359652
-0.077517 -0.171074 0.167529
0.045612 -0.162180 -0.338851
-0.598926 0.117590 0.350850
-0.891618 0.137499 0.245840
-0.512854 -0.010400 0.308646
-0.918285 -0.050125 -0.300663
-0.686439 -0.126293 -0.340958
-0.573571 0.004521 -0.224299
-0.087379 0.322878 -0.165066
0.766682 -0.172130 -0.178950
-0.925719 0.022566 0.281880
0.062825 0.305325 -0.060060
-0.540114 -0.080030 0.232313
0.818543 -0.167759 -0.048806
-0.693721 -0.102819 0.308530
0.526258 0.141161 -0.071380
-0.365752 -0.015604 -0.363549
0.575763 0.124623 -0.236607
0.448447 0.152233 0.070932
-0.002718 -0.171313 -0.064092
-0.341642 0.313114 0.070541
-0.324619 -0.171398 0.221824
-0.013366 -0.118105 0.363115
-0.829180 -0.143153 0.288615
-0.548344 -0.166907 0.037591
-0.270473 -0.171081 -0.142922
0.052563 0.294604 -0.213026
0.039779 0.310705 0.096398
0.513703 0.138249 0.196701
0.028760 0.187167 -0.301057
0.367679 0.165746 -0.141763
0.758241 -0.172842 0.091176
0.441330 0.144377 -0.288232
0.040717 -0.071128 -0.358017
-0.373812 -0.058231 0.371584
0.903329 -0.043139 0.092549
-0.053034 0.326810 -0.036122
-0.971842 -0.060756 -0.061298
0.630476 0.119603 0.174659
-0.060754 0.323519 -0.139081
0.859600 -0.017025 -0.215163
-0.379533 -0.172824 -0.227783
-0.746483 0.100007 0.339582
0.648968 -0.176370 0.156471
-0.129129 0.238736 0.285220
0.418094 -0.179787 0.080023
-0.560350 -0.153106 -0.345176
-0.557317 0.021591 0.252646
-0.717073 0.152122 -0.302121
-0.417189 -0.114033 0.373495
-0.916624 0.158526 -0.009168
0.239119 -0.004195 -0.359153
-0.362303 -0.117273 0.364835
-0.429162 -0.175645 0.337301
0.673774 0.115842 0.091896
-0.454550 -0.170666 0.133584
-0.274364 0.084462 0.364601
-0.944982 -0.023797 0.272884
-0.897239 0.084558 0.282428
0.869179 -0.155422 -0.181868
0.738239 -0.173807 0.339043
0.724391 0.081967 0.309703
0.674495 0.118207 -0.001532
-0.631658 0.132985 -0.332147
-0.961357 0.043255 0.025409
-0.945073 -0.076776 0.222484
-0.061221 0.327578 0.053252
0.482989 0.101269 -0.337715
0.303079 -0.020313 0.367486
0.662505 -0.035016 -0.250919
0.587097 -0.011547 0.233141
-0.108211 -0.170975 0.176602
0.584454 0.132561 0.069293
-0.353630 0.152618 0.334554
-0.543931 -0.167082 0.112781
-0.958246 -0.016004 0.231498
-0.802447 -0.150749 0.194683
0.670824 0.087309 0.331975
0.007192 0.157840 0.325913
0.186804 -0.171977 0.236190
-0.316742 0.317536 0.053205
0.822376 -0.017367 0.305249
0.431901 -0.133111 -0.252765
-0.953354 0.037935 0.157546
-0.598309 -0.096578 0.353946
0.109695 0.144477 0.331627
-0.055765 0.131935 0.346553
-0.314727 -0.171341 0.085950
-0.035517 0.089704 -0.355079
-0.210910 -0.006446 0.370150
0.420689 -0.143370 -0.280785
0.539639 -0.177989 -0.078641
-0.473348 0.147786 0.336816
0.134247 -0.171793 0.126547
-0.238208 0.327560 0.004415
-0.269161 -0.122702 0.361869
0.800361 -0.082483 0.330595
-0.104496 0.329001 0.086737
0.313536 0.171667 -0.223388
-0.107140 -0.170979 -0.043887
-0.481771 -0.157892 -0.285047
0.324296 -0.173496 0.121397
-0.808351 -0.147546 0.275476
-0.064133 0.048987 -0.359492
-0.904241 0.133752 -0.201336
-0.039005 -0.040755 -0.359935
0.647038 0.116869 0.284881
0.072221 0.302659 0.056941
-0.188518 -0.170718 0.056288
0.281481 -0.172309 0.253680
0.365915 0.166978 0.069375
0.478066 0.028582 0.376047
-0.035361 -0.096913 -0.356202
-0.439601 0.085176 0.363405
-0.757088 0.190760 0.099644
-0.421096 0.137905 0.344778
-0.912784 -0.131031 -0.102224
0.160123 0.261695 -0.123421
-0.372768 -0.172487 0.317541
-0.532535 -0.046668 -0.333560
-0.603384 -0.184626 0.258053
-0.225706 -0.170818 -0.200503
-0.265036 -0.158253 -0.342637
0.071999 -0.171574 0.084370
0.614337 0.011067 0.338229
-0.339519 -0.038002 -0.363191
0.567163 -0.177581 0.084996
0.416509 0.150357 -0.226694
-0.106665 -0.170980 0.121017
0.488557 -0.178745 0.223800
0.608119 0.014075 -0.234704
-0.277354 0.001098 0.370381
-0.738144 0.191214 0.161179
-0.009476 -0.171292 0.110218
0.750844 0.086711 -0.183747
0.567521 -0.177576 -0.172599
-0.126985 0.012418 0.369249
0.857921 -0.123040 -0.222989
0.632791 -0.006232 0.235773
-0.489426 0.263203 -0.202536
-0.563894 -0.166289 0.063870
0.458557 0.009734 -0.367482
-0.607338 0.228364 -0.178062
-0.817624 -0.077962 -0.334077
-0.025029 -0.171242 0.156581
0.418820 -0.138682 0.331569
0.614166 0.119372 -0.292021
-0.378605 -0.172771 0.284963
-0.726774 0.158882 0.298970
0.320417 -0.173288 0.077134
-0.860056 -0.060363 0.333437
0.227875 0.220130 0.209774
-0.170612 -0.123948 0.361646
0.069294 0.242009 -0.274703
0.533401 -0.178081 0.217719
0.079101 -0.171599 0.271011
0.241111 -0.172168 0.295847
0.334309 -0.174043 0.097803
-0.571310 -0.165995 -0.078497
0.074793 -0.168880 -0.331795
0.572515 -0.218287 0.348152
0.484679 -0.178803 0.009455
-0.687960 0.202026 -0.125827
0.652404 -0.138160 -0.353431
-0.623616 -0.075662 0.335392
0.462687 -0.073894 -0.286925
0.345461 -0.174982 -0.228783
0.205045 0.133743 0.357459
-0.338393 0.276357 0.264344
-0.604901 0.238249 -0.040626
-0.015883 -0.171271 -0.250474
-0.347625 0.235813 -0.275227
-0.943969 0.063135 0.130251
0.634659 0.121958 -0.114248
-0.417920 0.295467 -0.084242
0.530260 0.013307 -0.232647
-0.589198 -0.217864 -0.317903
0.671901 0.114584 0.123316
-0.014923 0.269042 -0.260260
-0.038094 -0.085647 0.365239
0.490671 0.069756 -0.358622
-0.577927 0.225556 -0.257086
-0.944715 0.003771 0.253702
-0.273858 -0.171100 -0.242242
-0.075804 0.225557 0.291419
0.504914 0.140947 0.167412
-0.297421 0.096286 0.362416
0.480344 -0.184235 0.300496
0.608259 -0.176967 0.218384
-0.239922 0.124211 0.355441
0.662129 -0.176174 -0.041011
-0.948881 -0.123294 -0.156540
-0.643423 -0.055836 -0.223180
-0.666456 0.149483 0.320856
-0.918898 0.087477 -0.214829
-0.527831 -0.200455 -0.335752
-0.501884 0.263792 -0.175006
0.189761 0.049533 -0.356840
0.666339 -0.121953 0.248402
0.412504 0.036678 0.369393
-0.695713 0.194470 0.215973
0.021429 0.315601 0.063852
0.158057 0.013174 0.367616
-0.816114 -0.175945 -0.099391
-0.556995 0.237277 0.242869
0.489410 0.104904 0.342124
-0.241202 0.326302 -0.057698
0.552301 -0.181145 0.362137
0.323508 0.058778 0.363121
0.158299 0.266998 -0.025320
-0.702263 -0.188380 0.123001
-0.908617 0.130139 0.192609
-0.381738 -0.127869 -0.356563
0.510370 -0.131289 0.235898
-0.157646 -0.042730 0.368651
0.738712 -0.174488 0.180880
-0.855896 0.106093 -0.306444
-0.627029 0.230696 -0.031028
0.499372 -0.190397 -0.356993
-0.539081 -0.161535 -0.313704
-0.540815 0.153879 -0.321382
-0.181634 0.004480 -0.361693
0.102649 -0.171682 -0.121101
-0.081790 -0.144444 0.355080
0.446489 0.018050 0.375430
0.360628 -0.014230 -0.361215
-0.092675 0.281892 0.261464
0.292058 0.199334 -0.054270
-0.604795 -0.068957 0.231700
-0.588403 0.026648 0.291136
0.693219 -0.139732 0.262808
-0.646715 0.046907 0.376515
-0.618046 -0.131755 0.231737
-0.504855 0.266375 -0.146667
0.051015 0.156038 -0.316997
0.778964 -0.061001 -0.336708
0.143288 0.178455 -0.303095
-0.725576 -0.128378 0.237864
0.621800 -0.028422 0.232143
-0.660792 -0.102550 0.231283
-0.546300 0.252344 -0.161031
0.048184 -0.029339 -0.359897
-0.887031 0.170013 -0.129273
-0.851068 -0.157646 0.108354
0.106765 -0.171696 0.269368
-0.781811 0.159657 0.284281
0.254057 -0.172213 0.200605
-0.898363 0.166850 0.140330
-0.450362 -0.030627 -0.372055
-0.144922 -0.170824 0.331556
-0.673829 0.202691 -0.178384
0.119738 0.281863 0.089583
0.280691 0.144858 0.324396
-0.247940 -0.012555 -0.362326
-0.529914 0.252719 -0.190488
0.333272 -0.173984 0.250890
0.187280 0.237096 -0.221024
0.512142 0.143807 -0.034370
-0.077560 -0.171073 0.108409
0.878375 -0.131595 -0.174129
-0.209777 -0.170724 -0.148540
0.900397 -0.131963 -0.047620
-0.082231 0.070474 -0.357911
-0.913419 -0.082911 0.288359
-0.386436 0.207774 0.296189
-0.008851 -0.171294 0.273764
-0.092565 -0.171025 -0.187964
0.509372 -0.085128 0.235701
-0.711484 0.189505 0.234939
-0.273786 0.259794 0.273438
0.289786 0.122792 0.339495
0.364863 0.156912 -0.191961
-0.129760 0.235942 -0.278696
-0.675862 -0.132951 0.348898
0.666225 -0.031471 0.303539
-0.590929 -0.128354 0.231971
0.116812 -0.080899 -0.356844
0.242383 -0.172172 0.322304
0.178610 0.144412 -0.361667
-0.952225 0.036941 -0.160392
0.879825 -0.085666 0.190392
0.499274 -0.178586 -0.194016
-0.552710 0.252186 0.141693
0.675026 -0.168680 -0.295637
-0.841858 0.181088 0.029149
-0.565256 0.252430 0.029151
-0.708577 -0.160695 -0.293154
-0.641533 -0.163205 0.047591
0.596658 -0.173851 -0.234599
-0.480968 0.107332 -0.350188
-0.471484 -0.140056 -0.266931
-0.624207 0.024045 -0.249454
-0.360571 -0.171950 -0.046728
0.613623 -0.176893 0.090053
-0.751919 -0.160587 0.166099
-0.339006 0.313560 -0.066856
-0.811757 0.184919 -0.060208
-0.585607 -0.165382 0.220172
-0.347807 0.003967 -0.363164
-0.328857 0.137955 -0.338142
0.662195 -0.167575 0.243092
0.417979 -0.179522 -0.227133
-0.265530 0.324432 -0.045777
0.204926 0.239666 0.142177
0.564092 -0.052570 -0.225674
0.532019 -0.212563 0.310470
-0.313989 -0.171336 0.289537
-0.518319 0.263857 0.126730
0.062909 -0.171543 0.174556
-0.701465 -0.180788 -0.099304
-0.499495 0.001519 -0.368705
-0.088145 0.166504 -0.312272
0.781563 0.003715 -0.320121
0.238861 0.198682 0.276143
-0.776094 -0.154815 -0.232070
0.758501 -0.044033 0.355831
0.334209 0.160784 -0.233648
0.468605 -0.068227 0.262787
0.155153 0.240615 -0.271721
0.708412 -0.175489 -0.149338
-0.588175 -0.182896 0.366153
0.486355 0.138540 -0.265313
0.386826 -0.178595 -0.248099
-0.719610 -0.140038 0.320446
-0.409489 0.286294 0.211231
-0.891030 0.152199 -0.224796
0.818950 -0.126805 0.308349
0.371701 -0.177274 0.131880
0.862157 -0.006832 0.051649
0.651876 -0.106203 -0.225454
-0.902013 -0.071798 0.309081
-0.615544 -0.166784 0.075999
-0.523145 -0.004819 -0.280074
0.372748 -0.158752 -0.350705
-0.544945 -0.167042 0.012588
-0.004959 -0.145410 -0.346674
-0.661078 -0.161003 -0.296977
0.347723 -0.175179 0.226145
0.864381 -0.090518 -0.193491
-0.383683 0.235844 0.282436
0.603704 0.121534 -0.211563
-0.043013 -0.013006 -0.360918
-0.675132 -0.191558 0.311841
-0.718141 -0.160162 -0.045080
-0.566535 0.023329 0.303724
-0.530776 -0.071446 -0.341943
-0.805982 -0.182768 -0.152838
-0.106287 0.330224 -0.027125
0.195120 -0.172007 -0.038757
0.465465 -0.092204 -0.245555
-0.690030 -0.074099 0.351229
-0.521258 0.266204 -0.030286
-0.528873 -0.156243 -0.285672
0.684093 -0.175849 0.040577
-0.291050 0.243367 -0.273615
-0.408447 0.299862 0.018904
0.388113 0.155664 0.033269
0.517182 0.011658 -0.336713
0.261060 0.217027 -0.016683
-0.877988 -0.133992 -0.224896
0.089405 0.291951 0.119749
-0.095732 0.310090 0.243416
0.274755 -0.171513 0.335682
0.886579 -0.031558 0.168164
0.816779 0.073851 -0.073907
-0.010552 0.064275 -0.358164
0.475071 0.148763 -0.052155
0.710732 -0.120741 -0.241416
-0.032635 0.324647 -0.019312
0.793959 -0.169831 -0.067759
-0.303684 0.305773 -0.214673
-0.532379 -0.143688 -0.226504
-0.693319 -0.165601 0.143972
-0.433365 0.284024 -0.176557
-0.038298 0.324434 0.080146
0.222878 0.234296 -0.090937
0.534255 0.014779 0.342715
0.348773 0.166282 -0.124222
0.278423 -0.172298 0.226218
-0.859173 -0.182654 -0.156956
0.547729 0.124912 -0.301255
0.181499 0.025157 0.366998
-0.263710 -0.171041 0.214412
-0.096802 -0.064126 0.367277
-0.248305 -0.060337 0.368726
-0.549788 -0.048120 0.348474
-0.253758 -0.170983 0.080880
0.475722 -0.152780 -0.360852
0.416355 -0.104838 -0.359699
0.193245 0.250967 -0.037343
0.405188 0.147869 -0.292634
0.870825 -0.158493 -0.151117
0.719332 0.092895 -0.237402
-0.347964 0.312300 0.042998
0.164992 0.252330 -0.196141
0.191631 0.247752 -0.116817
0.566582 0.030408 -0.358755
0.812619 0.027727 0.258660
-0.878110 0.175305 -0.049011
-0.865739 -0.135509 0.225667
-0.211643 0.266441 -0.262213
0.669423 0.111786 -0.280994
0.342381 -0.117480 0.362606
-0.913970 0.117381 -0.182033
0.022732 0.064461 -0.357833
0.568817 0.115531 -0.310941
0.534491 -0.131874 -0.343775
0.715760 0.093190 -0.289788
0.009607 0.129209 0.346963
0.434731 -0.131263 0.306390
0.342825 0.161917 0.178514
-0.343042 -0.083224 0.368107
-0.900927 -0.159842 0.124718
0.595579 0.125300 0.188628
0.824917 -0.102317 -0.300849
0.848493 -0.159848 -0.214578
-0.754779 -0.101713 0.361867
0.484996 -0.021168 0.277812
0.860734 0.000843 0.085764
0.597766 0.129783 -0.077237
0.008911 -0.171353 0.218210
-0.755819 -0.156706 0.247998
0.237260 -0.032749 -0.358778
-0.550946 -0.209075 -0.261906
0.527495 0.132654 0.245897
0.849696 -0.162962 -0.164559
-0.467970 0.140862 -0.334741
-0.437362 -0.148173 -0.246527
-0.691800 -0.180072 -0.335010
-0.329136 -0.171425 0.172146
0.180649 -0.162249 -0.339702
-0.607830 -0.021100 0.340434
0.065923 0.275364 -0.256885
0.359032 -0.176168 0.199327
0.073573 -0.171580 -0.076128
-0.431557 -0.175275 -0.207589
-0.270366 0.118222 0.358343
0.251559 0.209516 0.197834
-0.673619 0.166027 -0.292560
-0.087625 0.165916 0.320580
0.654592 -0.076702 -0.224555
0.655125 -0.189388 0.297873
-0.896489 0.164147 -0.162846
-0.359452 0.297947 0.210550
-0.779610 -0.021957 0.354574
-0.964379 -0.012958 -0.196144
0.498447 -0.151073 0.296927
-0.645208 0.029478 -0.366044
-0.628962 0.019988 0.266358
-0.799942 -0.150219 -0.009732
-0.782752 -0.112334 -0.346321
0.575311 -0.198436 0.253321
-0.899053 0.171582 -0.029106
0.350824 0.153398 0.225398
0.298563 -0.172370 0.021268
0.006828 0.006513 0.368663
0.111409 -0.106175 0.362897
-0.352050 -0.171623 -0.251072
-0.877483 0.042538 0.325054
-0.061338 0.162423 -0.313906
-0.712531 -0.140842 -0.246478
-0.162296 0.274275 -0.257565
-0.346695 0.236664 0.282972
-0.486383 -0.059414 0.369687
-0.897003 -0.137370 -0.198506
-0.163391 0.318014 -0.211788
-0.698942 0.168437 -0.284475
-0.550914 0.250052 0.174333
-0.616131 -0.004075 0.231533
-0.131058 -0.170902 0.074626
-0.741555 -0.159232 -0.059563
0.371374 -0.177245 -0.275439
-0.244006 0.313057 0.227589
0.704289 0.029285 0.361444
-0.471638 0.279595 0.102072
0.085643 0.288677 -0.168098
-0.705018 0.131154 -0.325353
-0.514105 -0.190845 -0.297968
-0.846903 0.150897 0.278876
0.062361 -0.171541 -0.004502
-0.119414 0.285704 0.259654
0.302969 -0.149584 -0.345885
0.773612 0.016023 0.327973
0.796564 0.044084 -0.260363
-0.930041 -0.088643 -0.242324
-0.082623 -0.171058 -0.034665
-0.171129 0.037293 0.368929
0.735543 0.088612 0.250626
-0.700069 0.019091 -0.366532
-0.106873 0.137625 0.343968
-0.760607 0.154238 0.298197
-0.469533 -0.170038 -0.129818
0.131161 0.272953 0.153946
0.295235 0.192756 -0.130073
-0.527012 0.227426 0.277962
-0.090614 0.244024 0.282199
-0.276489 0.315896 -0.169120
-0.717734 -0.160264 0.163809
-0.954885 -0.111919 -0.049209
-0.206940 0.005975 -0.361787
-0.830661 0.030179 0.338130
0.445595 -0.067972 -0.360665
0.235274 0.115255 -0.338808
0.076606 0.130678 -0.334975
0.813857 -0.167528 -0.171947
-0.108778 0.327940 -0.101793
0.773465 0.067241 -0.250371
0.777853 -0.171188 -0.087554
-0.127308 0.320382 0.207542
0.671027 -0.066911 -0.298299
0.299788 0.178021 0.225901
0.621039 0.116669 -0.230983
-0.795356 0.187937 0.002668
-0.499146 -0.111970 -0.285943
-0.575486 -0.180717 0.313057
-0.773254 0.098635 -0.327236
-0.051126 -0.171158 -0.280262
-0.965562 0.002736 -0.163412
0.220914 0.236212 0.078761
-0.029823 -0.001294 0.368953
0.835039 0.047358 -0.155037
0.186147 -0.171975 -0.286919
0.251466 -0.172204 0.271501
-0.187235 0.326205 -0.134326
-0.401209 -0.168225 -0.344777
0.503257 -0.071183 -0.337080
-0.811327 -0.146181 -0.296114
0.771258 -0.171744 0.186692
0.671339 -0.173418 -0.334162
0.318737 -0.173198 -0.039289
0.732448 -0.173191 -0.328584
0.590612 -0.216219 0.303678
-0.644382 -0.163092 0.198642
0.653998 -0.176295 0.214151
-0.919831 0.133839 -0.094758
-0.247613 -0.170947 -0.214791
0.690889 0.046115 -0.349515
-0.446555 0.284985 0.132858
0.841478 -0.161794 0.227432
-0.113447 -0.124318 0.361565
0.615594 -0.210581 0.310668
0.324293 0.156337 0.308119
-0.702095 -0.089628 -0.251478
-0.247413 0.309017 -0.232385
-0.961530 -0.004775 0.205023
-0.506847 -0.185037 -0.344686
0.431674 0.151893 0.161164
0.410028 0.156785 0.099009
-0.473530 -0.166601 0.231830
0.324965 0.170449 -0.200897
0.068124 0.151161 0.327802
-0.162121 -0.072675 0.366824
-0.817718 0.051684 0.336763
-0.488025 -0.071173 0.288399
0.115480 0.048578 -0.357760
0.631826 -0.130419 0.340130
0.109090 -0.160459 0.348857
0.344811 -0.150910 -0.349229
-0.303535 0.181823 -0.303564
0.718325 0.094664 -0.209160
0.803169 0.065704 -0.171985
0.157910 0.265817 0.079907
-0.138856 0.194379 0.306950
-0.919713 0.119229 -0.144504
-0.677028 -0.068313 -0.342561
0.081947 0.292717 0.152183
0.738176 0.037567 -0.330556
-0.048721 -0.171166 0.165139
-0.519672 -0.196658 0.281636
0.141058 -0.034548 -0.359230
0.051129 -0.171501 -0.279029
-0.495690 -0.175413 -0.319995
0.069973 -0.171567 0.119436
-0.253762 0.059541 -0.359664
-0.384811 -0.173129 -0.201030
-0.187749 -0.170720 -0.221780
-0.158521 -0.155182 -0.343462
0.350726 -0.175441 0.162673
-0.646988 -0.208040 -0.340556
0.545577 0.011497 -0.335452
0.791205 -0.030827 -0.327532
-0.831768 0.118215 -0.312001
-0.365676 -0.172174 0.110791
0.851910 -0.042844 -0.271879
0.503038 -0.150562 0.361816
0.335836 -0.012377 0.368063
-0.279964 -0.171136 0.192449
-0.611932 0.225857 0.191115
0.249130 0.222937 0.041804
-0.217146 0.239367 0.285435
0.900358 -0.047243 0.118511
-0.541682 0.257560 -0.104131
-0.695606 -0.166853 -0.360811
-0.961397 -0.082982 -0.120958
0.401167 0.084337 -0.350102
-0.701188 0.070669 0.354557
-0.462343 0.269927 -0.212337
-0.185567 -0.170727 -0.271700
-0.201121 0.326277 0.132461
-0.275306 -0.171109 0.238702
-0.664849 -0.162388 -0.072373
0.281581 -0.140411 0.355691
0.262718 0.199793 -0.212360
0.548773 -0.211384 0.260751
-0.629664 0.012256 0.327067
-0.034880 -0.135652 -0.348896
-0.385533 0.305303 0.010824
0.089469 -0.075209 -0.357439
-0.774005 -0.156215 -0.073723
-0.661872 -0.076503 0.231209
-0.516950 0.107033 -0.350114
0.725815 0.101420 0.129447
-0.324632 0.315092 -0.090605
-0.730143 -0.133092 -0.227179
0.216958 -0.042747 0.366617
0.309316 0.189122 0.087003
0.408535 -0.179684 0.194616
0.224837 0.228540 0.156682
-0.125015 0.330513 0.059583
0.855824 0.013752 -0.000883
-0.922351 -0.126633 0.093036
-0.184216 -0.170731 -0.147614
-0.859592 -0.073590 -0.320587
0.480918 0.148392 0.015534
-0.749179 -0.184773 -0.104838
-0.509652 -0.057777 -0.323632
-0.499739 0.106563 0.358225
-0.960657 0.040826 -0.063429
-0.713907 0.131333 0.331932
0.268171 -0.085788 0.363583
-0.566627 -0.163559 -0.222939
-0.351667 0.307973 0.131571
0.713427 -0.175415 0.186578
0.181421 0.247009 0.186782
0.853117 0.034842 0.104954
0.856621 -0.071249 -0.263173
0.618078 0.126873 -0.062968
0.836144 -0.089153 -0.282058
-0.102659 0.320182 0.204134
-0.692200 -0.048516 0.311077
0.058789 0.041104 0.367229
0.672605 -0.108208 0.297599
0.087308 -0.171628 0.058603
0.688346 -0.150936 -0.279635
-0.148020 -0.170847 0.106938
-0.002075 0.091252 -0.354681
0.182118 0.216786 -0.286321
0.644000 -0.176443 -0.197717
-0.454737 0.247491 0.274430
-0.468295 0.023590 0.377567
-0.790973 -0.149945 -0.310023
-0.829111 0.182416 0.065856
-0.584167 -0.217477 0.317098
-0.325074 0.314109 0.114041
0.484335 0.146416 0.105057
0.868068 -0.124615 0.201160
0.857970 -0.123110 0.231049
0.578036 0.127735 -0.191118
-0.578975 0.019049 -0.352535
-0.223744 -0.046994 0.369228
-0.626354 0.214976 0.222475
0.058153 0.181918 -0.303267
0.508404 0.004578 0.272842
-0.287234 0.317083 0.151271
-0.087292 0.016395 -0.360957
-0.715663 -0.097936 0.372016
0.769019 -0.172006 -0.290586
0.360875 -0.170234 0.349846
0.110251 -0.171709 -0.162139
-0.703019 -0.163527 0.358326
-0.180873 0.253324 -0.269676
-0.137513 -0.002152 -0.361538
0.130305 0.279023 0.041255
0.418099 -0.140656 0.276532
0.903429 -0.070840 0.100038
0.327106 0.145557 -0.311146
-0.744779 -0.139571 0.314208
0.739082 -0.050922 -0.356501
-0.537535 -0.062285 -0.224200
-0.050613 -0.171160 0.266402
0.854510 -0.134820 0.254411
-0.972287 -0.066666 0.108846
0.619601 0.015523 0.276540
0.840703 -0.019215 0.281918
-0.256047 -0.170996 0.171477
0.082489 -0.171611 -0.176936
0.217507 0.131855 -0.344127
0.206335 0.188002 -0.342480
-0.231249 -0.170850 -0.130065
-0.852882 -0.138150 0.282252
0.709023 -0.175480 -0.115892
-0.592635 -0.165153 0.061713
-0.648054 0.217671 0.139902
0.038452 -0.171457 -0.165702
-0.726619 -0.120049 -0.355908
-0.635298 0.227032 0.072141
0.563180 0.012857 0.328941
-0.759368 -0.036700 0.366343
-0.657356 -0.162576 -0.037060
0.639798 -0.029016 -0.322786
0.351023 0.043358 -0.356651
0.738141 -0.105414 -0.354336
0.265936 -0.172255 -0.202046
-0.265966 0.323043 -0.090393
0.101469 -0.157690 -0.342885
-0.887881 0.001973 0.327191
-0.735623 0.185272 0.242060
-0.105642 0.100081 -0.353838
-0.154151 0.121568 -0.347283
-0.769169 0.188587 0.124247
-0.174101 0.298789 -0.245335
0.756528 -0.160387 -0.336517
-0.136901 -0.170883 0.170707
0.850288 -0.162873 0.172987
-0.310064 0.310562 -0.175502
0.579890 -0.182237 -0.352984
0.579222 0.134522 0.014435
-0.015463 0.118851 0.353634
-0.017845 0.291405 -0.249011
0.577084 -0.021270 -0.341380
0.736125 0.071506 -0.305101
0.191535 0.251746 0.047337
-0.172328 -0.170770 0.172184
0.759905 -0.072524 0.355802
-0.100073 0.012798 0.369095
0.398368 0.155700 -0.174501
-0.706378 0.201271 0.018761
-0.355703 -0.019345 0.371263
-0.494556 -0.062819 -0.274133
-0.872961 -0.185675 0.161920
-0.926079 0.065258 -0.227350
0.311433 -0.131294 0.358040
0.479881 0.146268 0.130213
0.738240 0.089243 0.210197
-0.556538 0.228673 0.268997
-0.084752 -0.171051 0.198650
0.180891 0.204079 0.302391
0.538384 -0.178007 -0.200770
0.130821 0.158115 -0.311343
0.078837 -0.171598 0.202260
0.516870 -0.178326 0.144753
-0.932446 0.036758 -0.246456
-0.655911 0.218675 0.084455
-0.508939 -0.032626 0.354520
-0.687002 -0.182399 0.337691
-0.548357 0.014126 -0.290490
-0.548123 0.244084 -0.205815
0.907424 -0.044027 -0.043775
0.551086 -0.167149 0.237273
-0.504065 -0.124441 -0.358326
0.896747 -0.143949 0.082406
0.540510 0.037611 -0.364068
-0.945255 0.034862 0.212188
0.450275 -0.021861 -0.362592
-0.162599 -0.170801 0.133898
0.701674 0.108070 -0.115536
-0.155726 -0.059917 -0.359754
-0.155398 -0.170824 -0.255773
0.039001 -0.171459 -0.303749
0.700589 0.102026 -0.251285
-0.598687 0.225672 0.219806
-0.415862 -0.042972 -0.366627
0.153980 -0.082815 -0.356494
0.527534 -0.211874 -0.306142
-0.653049 -0.162989 -0.094778
-0.554271 0.016429 -0.238797
-0.629780 -0.084806 -0.344786
0.480282 0.142891 0.201484
-0.447013 -0.133264 -0.275401
-0.193680 0.327346 -0.108833
-0.034677 0.312278 0.228401
0.608556 -0.176968 0.018375
0.609016 -0.173367 0.313635
-0.576002 0.106406 0.356094
0.738517 -0.078976 -0.356113
0.322595 0.024394 0.366428
-0.337538 0.304960 -0.184216
0.014947 -0.171374 -0.253358
0.088894 -0.171634 -0.096192
-0.240508 -0.170905 -0.283433
0.796690 0.085581 0.038212
-0.788270 0.188444 -0.027768
0.719858 -0.125630 -0.343830
-0.307650 0.185796 0.309401
0.881108 -0.156881 0.133360
0.894062 -0.043476 -0.143147
0.746937 0.083387 -0.214434
0.698677 0.093341 0.310322
-0.175576 0.327468 0.121873
-0.667682 -0.162166 0.036329
-0.933623 0.052417 0.230099
0.051042 0.309600 0.015208
-0.729671 -0.190939 0.127858
-0.604318 -0.164683 0.124902
-0.541736 -0.207417 0.343997
-0.869170 0.121356 0.294008
-0.352525 -0.171640 0.050619
-0.002691 -0.171314 -0.309090
-0.142407 -0.170866 -0.229034
-0.146358 -0.170853 0.301835
0.241641 0.221243 -0.133040
-0.386378 0.304556 0.045186
-0.868165 0.175939 -0.073911
0.094008 -0.132755 -0.349963
-0.580890 0.143961 -0.327196
-0.808696 0.082649 0.333216
0.313060 0.187776 0.062335
-0.386660 -0.173264 -0.032341
0.668644 -0.178331 0.322692
-0.057053 -0.002930 0.369137
-0.827264 -0.150509 0.191623
0.037430 0.312531 -0.045817
0.550491 -0.033346 -0.331193
0.481596 -0.065782 0.325922
0.166057 -0.058873 0.366302
-0.202684 0.323920 0.166766
0.127422 -0.171769 0.026659
-0.752575 -0.141806 0.341880
-0.492620 -0.046414 0.262566
-0.238324 0.290939 -0.249500
-0.688053 0.194707 -0.226764
0.314851 0.178578 -0.164717
-0.971640 0.020403 0.006980
0.678263 -0.167350 0.349300
0.569380 0.026560 0.306061
-0.561544 0.070796 -0.364268
0.097417 -0.171664 -0.004825
-0.293490 0.020524 0.369913
0.381359 0.161503 -0.032185
-0.571689 0.014180 0.326633
-0.650291 -0.164121 0.125127
-0.921565 0.116589 0.141859
-0.615240 -0.216199 -0.304966
0.571301 -0.180812 -0.302905
-0.473738 -0.150041 0.324139
-0.951099 -0.127640 0.141607
0.426765 -0.179660 0.047885
0.633651 0.125380 -0.016358
-0.815995 -0.136849 0.324091
-0.515591 -0.144159 -0.245439
-0.669642 0.031260 0.375729
0.281009 -0.172307 -0.062235
0.714475 -0.068801 -0.355683
0.582371 -0.087566 0.233370
-0.822200 -0.049767 0.342739
-0.502524 0.267593 0.145600
0.781725 0.069838 0.213398
0.479998 -0.164887 0.369833
0.193133 0.233957 0.230009
-0.934116 0.060564 -0.202190
-0.172859 0.133090 0.348100
-0.910349 -0.144609 0.206560
0.746885 0.083207 0.275188
-0.841200 0.166695 -0.237266
-0.264478 0.311635 -0.209589
-0.512410 0.180060 0.309359
0.007132 -0.171347 -0.113828
0.020186 0.162330 -0.313267
-0.669060 -0.148716 0.271239
0.902497 -0.133381 -0.012623
0.341220 -0.174619 0.282263
-0.657246 -0.173833 0.252305
0.867578 -0.065445 -0.239992
0.636517 -0.137362 0.233419
-0.908251 -0.105251 -0.277372
-0.586433 0.026779 -0.244356
-0.609366 0.220912 -0.216774
0.011581 0.211686 0.297744
0.067188 0.287296 -0.233104
-0.322879 -0.171388 -0.162272
-0.393774 0.274200 0.260359
0.836436 -0.162893 -0.255503
0.070692 0.021071 -0.359794
-0.565631 -0.166220 0.093650
-0.437252 -0.159757 0.260336
0.090690 -0.171640 0.134043
-0.167542 0.331079 0.007149
-0.111338 0.321140 -0.191539
-0.351086 0.071014 0.365943
-0.423291 -0.092242 -0.367459
0.401857 -0.179476 0.223077
0.547404 -0.009419 -0.226144
-0.764338 -0.076314 0.365724
0.694902 0.108640 0.138094
0.414527 0.107127 -0.335775
-0.555691 0.057325 0.378993
0.641801 0.093734 0.334300
-0.304832 -0.171283 -0.145019
-0.346160 0.114005 0.358449
0.731505 -0.174981 -0.163626
0.867892 -0.163520 0.007233
-0.502010 -0.057896 0.330642
0.132378 -0.059644 -0.358309
0.241479 0.145971 -0.328400
0.437335 0.153149 0.098001
-0.517567 -0.024631 0.330227
0.739850 -0.174392 0.145830
0.506377 0.142055 0.139783
-0.579655 -0.165663 -0.126238
-0.825633 0.017111 -0.331462
-0.768267 0.118351 0.330874
-0.724987 0.191493 0.184256
-0.615492 -0.164239 -0.103166
0.589577 -0.177249 -0.188787
0.821450 0.049485 -0.185024
-0.377999 -0.139979 0.361960
-0.021386 -0.171253 0.219263
0.214898 -0.172076 0.229819
-0.123188 0.137795 -0.336287
-0.371647 -0.172437 0.204158
0.457002 -0.179213 -0.185401
0.116223 0.179702 -0.303460
0.453514 -0.179264 -0.051626
-0.537827 -0.167325 -0.130316
0.649049 -0.009067 0.313648
0.690351 -0.077049 -0.360779
0.676515 0.099242 -0.306187
0.082019 -0.071362 0.365924
0.730784 -0.170932 -0.249238
0.530347 -0.173290 0.264695
-0.725594 -0.182102 -0.092475
-0.686408 -0.161358 0.220440
-0.972277 -0.002970 0.136065
-0.814325 0.185040 0.043395
-0.779348 -0.076489 -0.351841
-0.153375 0.329223 0.099694
-0.715953 -0.149651 -0.349894
0.845559 0.001557 0.206684
-0.070679 -0.117340 0.363121
-0.291307 0.133810 0.348840
-0.659133 -0.135833 -0.328955
-0.418533 -0.175763 0.256792
-0.931760 0.089256 0.136922
-0.922149 0.125490 0.106947
0.571471 -0.099427 -0.327958
0.586843 -0.181283 0.275583
-0.846356 -0.141113 0.208164
-0.933217 0.103550 0.054591
0.714213 0.099613 -0.175777
-0.644829 -0.113395 -0.223311
-0.522968 -0.003643 -0.247530
-0.168196 0.098935 0.369988
0.643204 0.120188 0.127719
-0.766587 0.042554 0.347771
0.646412 -0.195978 0.325020
0.643355 -0.130541 -0.327801
0.251598 -0.172205 0.244246
-0.011228 -0.013499 -0.360733
-0.712599 -0.004233 -0.365318
0.813508 -0.102825 0.318629
-0.476431 -0.076090 -0.365222
0.169238 -0.171915 -0.209735
0.046998 0.290097 0.253044
-0.059986 -0.171130 -0.014726
-0.309871 0.148006 0.338730
0.797040 -0.170083 -0.277636
0.634985 -0.190303 0.368446
-0.882247 -0.090698 -0.305199
0.363209 -0.176533 -0.306860
0.540648 -0.174379 -0.234712
-0.575774 -0.074484 -0.331890
0.603431 -0.177044 -0.062349
0.392758 0.154404 -0.219480
0.480366 -0.074190 -0.325819
0.716458 -0.082226 0.360992
0.567921 -0.177570 0.168966
0.153771 0.261901 0.166380
0.513403 -0.199277 0.364248
0.033342 0.224037 0.291797
0.083796 -0.171615 -0.305079
-0.491936 -0.169148 -0.146787
-0.688502 -0.050837 -0.324442
-0.684074 -0.161515 0.056088
-0.593809 0.218389 0.268840
-0.417037 0.293851 -0.113702
-0.519389 -0.168057 -0.108553
-0.872454 0.176383 0.039115
0.022472 -0.171400 0.093115
-0.503344 -0.184332 0.307657
-0.323002 -0.171389 -0.312112
0.496309 -0.178630 -0.058905
0.619398 0.107289 0.319848
0.464699 0.147382 -0.146259
0.033695 -0.171440 -0.123061
-0.319187 0.299348 -0.235324
0.366177 -0.176792 -0.117295
-0.158339 -0.099500 0.364287
-0.076372 -0.171077 -0.289586
-0.351563 -0.171605 -0.086801
-0.480053 0.278325 0.067930
0.906252 -0.061275 0.075268
-0.279514 -0.171133 0.275032
0.793016 -0.115160 0.331549
-0.147320 -0.083690 -0.357566
-0.942113 -0.144808 0.160187
-0.663995 -0.165586 0.074896
-0.422236 -0.175852 0.184986
0.607602 -0.143541 -0.343757
-0.018701 0.322390 -0.051073
-0.093804 -0.130883 -0.350505
0.220276 0.164202 0.360943
-0.125715 0.324565 0.180196
0.295845 -0.172360 0.126802
0.636938 -0.179791 -0.360823
-0.521784 -0.143371 -0.314115
0.501740 0.143519 -0.107124
-0.936084 -0.000572 0.276874
0.477756 0.139291 0.273460
0.730047 0.101577 -0.102842
-0.713255 -0.070388 0.372445
0.134433 0.277997 -0.007300
0.448116 0.043595 -0.363578
-0.645937 0.014845 -0.295001
-0.917403 -0.115801 0.251360
-0.796799 0.036089 0.343273
-0.328216 -0.171420 -0.132944
-0.353901 -0.171691 -0.151436
0.870955 -0.016041 0.026579
0.742648 0.083610 -0.277382
0.443667 -0.178444 -0.224334
-0.564030 0.096317 -0.351784
0.185342 0.246248 -0.170600
0.257853 -0.055167 -0.357807
-0.674741 -0.013332 -0.340103
-0.602792 -0.033274 0.231644
0.679274 0.027590 0.370731
-0.566012 -0.214726 -0.291506
0.456392 -0.179222 0.215468
0.825870 0.074455 -0.000555
0.618074 -0.120068 -0.333900
0.215388 0.084439 -0.352188
0.830728 0.059185 -0.121750
-0.707952 -0.160566 -0.185470
-0.970266 -0.070557 0.030041
-0.859671 -0.138708 -0.019911
0.189803 -0.160336 0.349425
-0.866817 0.156199 0.258569
0.820526 0.003386 0.285176
0.244845 -0.040230 0.366567
0.758119 -0.132258 0.351939
-0.604246 -0.042696 -0.330008
-0.121361 -0.083465 -0.357468
-0.407091 -0.175015 -0.298085
-0.111303 0.326429 -0.132038
-0.399147 0.301241 -0.066204
-0.352733 0.029100 -0.362052
0.880944 -0.103573 0.129453
-0.341136 -0.171495 0.261505
0.565625 -0.177604 -0.032944
0.157110 0.041912 -0.357799
-0.973970 -0.059927 -0.116965
0.108408 -0.016277 -0.360045
0.497540 -0.198559 -0.331862
0.142578 -0.171822 -0.217624
0.547459 -0.109271 -0.342596
-0.727161 0.002316 0.371830
-0.652409 0.208598 -0.193876
0.221580 -0.172099 -0.039087
0.298165 0.172372 -0.244029
0.044341 0.306977 0.138092
-0.639816 0.171783 -0.291988
-0.499159 -0.044876 -0.302126
0.668332 -0.035612 0.251685
0.320831 -0.043798 0.366763
0.262273 0.215325 0.062214
0.092854 0.275025 -0.248345
-0.357868 0.310804 0.013261
-0.526035 0.137145 0.344359
0.468113 0.132170 -0.306598
-0.358864 0.277136 -0.254450
-0.580256 0.244759 -0.097333
0.479636 -0.117427 0.342444
0.864261 -0.148442 0.226037
0.666620 -0.109734 -0.259652
-0.243883 0.324535 0.107069
-0.213503 0.301025 -0.242495
0.534174 -0.176896 -0.294038
0.514119 -0.137199 -0.328670
0.733600 -0.132223 0.359645
-0.520222 0.204204 0.294711
-0.080674 -0.073046 -0.358269
-0.903094 0.079694 -0.269996
0.053536 -0.171510 0.207317
0.697345 0.110696 -0.086968
0.380011 0.066875 -0.353827
-0.819944 0.152925 0.282995
0.464952 -0.098313 -0.344094
-0.045286 0.300091 0.252362
0.668465 0.057184 -0.350842
-0.203788 0.185756 -0.303137
-0.218811 0.210692 -0.291564
0.767642 -0.020916 0.346864
0.131728 0.012069 0.367863
-0.966632 0.017300 0.121600
-0.572334 0.237846 0.201356
0.764463 -0.124327 -0.340830
-0.643738 0.013261 0.290218
0.544412 -0.177918 0.114837
0.060116 -0.171533 0.022640
0.349932 0.018459 -0.359133
-0.548596 0.255900 0.103260
0.885376 -0.158684 0.054491
0.705160 -0.060460 0.366800
-0.758957 0.191904 -0.042793
0.634260 0.116978 -0.194132
-0.878184 0.109837 -0.286187
0.655408 -0.068903 0.346218
-0.629746 -0.175234 0.292841
0.416274 -0.169537 -0.314425
-0.215182 -0.170756 0.136679
-0.629008 -0.046218 -0.336120
-0.164205 -0.022300 -0.361286
0.508184 -0.156538 0.322373
-0.697927 -0.107673 -0.268287
0.023674 0.110084 0.357502
-0.434988 -0.170169 -0.259307
-0.476943 -0.104061 -0.365144
-0.960699 -0.091539 0.106437
-0.495233 -0.169017 -0.189060
-0.108974 -0.161710 -0.338589
-0.176757 0.160303 0.328829
-0.276045 -0.106594 -0.356715
0.555911 -0.180984 0.282410
-0.714124 0.194199 0.122179
0.515648 0.136466 -0.212614
0.699295 0.103966 0.285350
0.220177 0.227965 0.185261
0.243976 -0.158598 -0.342845
0.467760 -0.090307 0.364988
0.361211 0.090268 0.356077
-0.679670 0.209662 0.078378
-0.780871 0.135490 0.316351
-0.672068 -0.161992 0.197411
0.706969 -0.175510 0.021679
0.359541 -0.033690 0.369155
-0.733254 0.014193 -0.359042
-0.618300 -0.137670 0.346331
0.840484 -0.057933 -0.289045
0.265275 -0.058135 0.365779
-0.884993 -0.132158 0.249476
-0.957611 0.014892 0.188947
-0.657659 0.183088 -0.277634
-0.942800 0.076447 -0.064740
0.167771 0.160173 -0.310072
0.448907 -0.148333 -0.348220
-0.943489 -0.130716 -0.183889
-0.032492 -0.059546 0.367330
0.054752 -0.171514 -0.030686
0.786960 0.081578 0.130886
0.754060 0.098843 -0.036994
0.589493 0.122055 0.245813
0.270771 0.012654 0.366668
0.715863 0.036777 -0.343591
0.850546 0.042187 -0.097573
-0.236628 -0.170882 0.052411
0.109215 -0.171705 -0.187883
0.565354 0.135836 -0.038327
0.061035 0.300259 0.166077
0.251916 0.094515 -0.348949
0.313072 0.188271 -0.043931
0.023240 -0.108540 -0.355166
0.220497 -0.172095 0.255390
0.185663 -0.098515 0.363024
0.646665 -0.046560 -0.224149
-0.621601 -0.163997 -0.045080
-0.110645 0.071211 0.366069
-0.663715 -0.093934 -0.223093
-0.911032 0.137408 -0.163658
-0.853771 0.168343 -0.211049
0.069157 0.300168 0.131788
0.599836 -0.192520 0.252122
-0.932976 -0.164119 -0.187656
-0.537112 -0.166430 0.279164
0.357890 0.131264 -0.319630
-0.753941 0.162141 -0.280161
0.126730 0.279358 -0.073622
0.309086 0.051851 -0.356267
0.138369 -0.171808 -0.314640
0.319673 0.123517 0.336446
0.077744 0.301183 0.032305
-0.899790 -0.131056 0.061974
0.571187 0.024611 -0.308988
0.573748 -0.210990 -0.356179
0.179313 0.156428 0.394875
0.605714 -0.174796 -0.290633
0.470020 0.149600 0.046540
-0.650431 -0.075343 0.341933
0.615509 0.092951 0.339897
0.761864 -0.039400 -0.345692
-0.980926 -0.046969 0.002755
-0.820512 -0.148944 -0.077897
-0.568335 0.250433 -0.067746
0.676157 -0.175967 -0.106888
0.843859 -0.118596 -0.247266
0.307761 0.113103 -0.336550
0.469335 -0.041200 -0.274419
0.540311 0.135555 -0.157479
-0.805811 -0.036351 -0.338314
0.625912 -0.176711 -0.004346
0.698470 -0.169169 -0.220904
-0.270007 0.299845 -0.240957
0.745903 -0.173881 0.064121
-0.306045 0.312295 0.175252
