0.559909 0.113385 -0.308571
0.089733 0.229560 -0.308571
-0.291315 0.062700 0.309509
-0.463699 -0.228349 -0.308571
-0.416480 -0.199646 0.277054
0.810730 -0.276640 0.179709
0.544464 0.174580 -0.174061
-0.669388 -0.078132 0.308437
-0.273644 0.392336 -0.280521
0.069989 0.392540 -0.279419
0.554077 0.171489 0.071352
-0.593520 0.399279 -0.166521
0.894404 -0.086701 -0.003720
-0.513366 0.399279 0.231958
-0.005588 0.387964 0.302864
-0.648410 0.323573 -0.308571
-0.088104 0.076934 0.309509
-0.575784 -0.314412 0.179709
-0.777397 0.399279 -0.095428
-0.228907 0.399279 0.203713
-0.246275 -0.198918 -0.101283
-0.798107 0.391019 -0.287668
0.673679 -0.250251 0.179711
0.392126 -0.188960 -0.308515
0.527909 0.130545 -0.308571
-0.389639 0.399279 -0.068854
0.631672 -0.087931 0.309401
0.868385 -0.010695 -0.288778
0.109070 -0.198918 -0.198278
0.573172 0.017709 -0.308571
0.466102 0.007600 -0.308571
-0.282971 0.399279 0.002179
-0.190310 0.016117 -0.308571
0.430795 -0.056504 -0.308571
0.903190 -0.124748 0.089730
-0.632187 -0.301995 -0.178772
-0.377718 0.347374 0.309509
-0.282209 -0.064823 -0.317476
-0.116423 0.399279 -0.204331
-0.072140 -0.198918 0.269840
-0.094874 -0.146688 0.309509
-0.094894 0.399279 0.218381
0.761000 0.127444 0.169815
0.507570 0.236398 -0.294631
-0.554498 0.326291 -0.308571
-0.766054 0.033320 -0.308571
0.361172 -0.198918 -0.037087
-0.910841 -0.138007 -0.308571
-0.707327 -0.177276 -0.308571
-0.721292 -0.210329 -0.205913
0.435624 0.017093 -0.308571
-0.622384 -0.304520 -0.308571
0.491146 0.035576 0.309509
-0.659089 -0.052734 0.309475
-0.146237 -0.198918 0.071801
-0.720514 -0.198918 0.063017
0.850428 0.103713 -0.021835
0.551472 -0.199479 0.174750
0.582193 -0.259343 0.272385
0.105471 0.399279 -0.064222
-0.527543 -0.198918 0.041390
-0.643102 0.394395 0.270287
-0.388919 0.232277 0.309509
0.508812 0.240051 0.066403
-0.262698 0.399279 -0.055310
0.463235 0.346227 -0.029754
0.823595 0.117264 -0.050653
-0.183077 0.399279 0.011114
-0.923110 0.213774 -0.033297
-0.254563 0.056547 -0.308571
0.701351 0.033835 -0.288706
-0.914269 0.240512 0.277030
-0.479769 0.228478 0.309509
0.611125 -0.299576 -0.235161
-0.939119 -0.141225 -0.109929
0.534928 0.121292 0.309509
-0.551599 -0.163428 0.309509
0.826035 -0.278126 0.264743
0.088420 -0.198918 -0.137702
-0.200932 -0.194624 -0.307367
0.454107 0.359579 0.289752
-0.728515 0.005891 -0.308571
-0.626202 -0.142249 -0.308570
-0.380833 0.135778 0.309509
-0.055646 -0.198918 0.235916
0.467549 -0.198918 -0.240169
0.460384 0.346621 -0.281325
0.850151 0.040897 0.291725
0.024867 0.203791 -0.308571
-0.412653 0.392621 0.279916
-0.635719 0.250719 0.309509
0.912060 -0.163160 -0.094648
-0.649763 -0.273444 0.309509
0.065447 -0.198918 -0.234371
0.518759 -0.122224 -0.308571
0.499066 -0.198918 -0.016530
0.318945 -0.198918 -0.003191
-0.842848 0.399279 0.133569
-0.897515 0.293625 -0.000681
0.617831 -0.247829 0.179710
-0.719589 -0.215199 -0.280434
0.590292 -0.198918 0.138790
-0.519750 0.399279 -0.180856
-0.482268 0.079710 -0.308571
-0.307834 0.392066 -0.281989
0.641882 -0.138488 -0.308568
0.834210 -0.266290 0.231151
-0.485924 -0.216709 0.309506
0.038290 0.028133 -0.308571
-0.786683 0.186015 0.309509
-0.551767 -0.240498 -0.178772
0.900930 -0.156551 0.196095
-0.676223 -0.299788 -0.261643
-0.251833 0.389562 -0.295577
-0.534425 -0.206470 -0.308571
-0.773948 -0.198918 0.049953
-0.877484 0.356117 -0.143084
-0.913827 0.074221 0.309509
-0.760465 -0.121193 0.309509
-0.098015 -0.071306 -0.308571
-0.380673 -0.198918 -0.095680
-0.268239 0.399279 -0.093818
-0.034567 -0.198918 -0.187906
0.678941 0.146367 0.142859
0.851156 -0.198918 0.018124
-0.499983 -0.001498 0.309509
0.602620 -0.289932 -0.202170
-0.901855 -0.099700 -0.308571
0.030091 0.192859 0.309509
0.544569 0.174541 -0.019405
0.168062 -0.173392 -0.308571
-0.782109 0.262561 -0.308571
-0.867872 0.383366 0.305551
0.455004 -0.036380 0.309509
-0.212783 -0.198918 0.126533
-0.142346 0.399279 0.109500
0.782296 0.026586 -0.291278
0.519870 0.214290 -0.051053
-0.754489 0.155328 -0.308571
-0.832814 0.399279 0.031073
-0.577500 -0.339243 -0.216080
-0.312277 -0.129951 -0.308571
-0.480648 0.260993 0.309509
0.232125 0.077399 -0.308571
0.567284 -0.213164 0.206852
-0.482288 -0.198918 -0.010820
-0.414218 0.399279 0.033012
0.227982 -0.048463 0.334274
0.669067 0.148353 0.114143
-0.674016 0.081941 0.309509
0.224068 -0.097431 0.309509
0.162054 -0.198918 0.212315
-0.620056 -0.283300 0.309507
-0.934341 -0.194035 0.308278
0.153510 0.399026 0.243053
0.448739 0.139609 0.309509
-0.357039 0.399279 0.019142
-0.308333 -0.055099 0.332721
-0.038352 -0.177732 -0.308571
-0.939119 0.117157 -0.278760
0.793253 -0.164814 -0.308485
-0.192283 -0.198918 0.279013
-0.768194 -0.198918 0.192766
-0.823678 0.393507 -0.274171
0.017549 -0.140065 -0.308571
0.734132 0.030892 -0.289750
-0.462164 0.227952 -0.308571
-0.892226 -0.198918 0.244625
0.849051 -0.228262 -0.236189
-0.736555 -0.099283 -0.308571
-0.110173 -0.078566 0.309509
0.551352 -0.198918 0.013798
-0.939119 -0.063435 -0.119903
0.660756 -0.082284 0.309509
-0.939119 0.062539 -0.161494
-0.058546 0.399279 0.201982
0.573281 -0.213322 0.308846
-0.022934 -0.198918 0.081869
-0.096423 0.141610 0.309509
0.061627 0.399279 -0.127413
-0.068179 -0.153942 0.309509
0.874671 -0.001253 -0.066269
0.694433 0.007503 -0.302110
0.431760 -0.091398 -0.308571
0.595004 0.129455 -0.293149
-0.939119 0.131390 0.222080
0.768103 -0.263195 0.309483
0.049988 0.066702 -0.308571
-0.791623 -0.054552 -0.308571
-0.941702 0.060003 0.263031
0.431924 -0.198918 -0.026470
-0.703940 -0.198918 0.124606
-0.891569 0.126327 0.309509
0.189675 0.037679 0.309509
-0.514653 -0.005700 -0.308571
0.891767 -0.075281 -0.076633
-0.318639 0.015965 0.309699
0.423498 0.305721 -0.308571
0.056590 -0.198918 0.159015
-0.931423 0.187742 0.281631
-0.122820 0.399279 -0.173259
0.697239 0.058266 0.302350
0.846636 0.085894 -0.293220
-0.428901 0.253669 -0.308571
-0.360172 -0.198918 -0.262192
-0.727364 0.399279 -0.055630
-0.888690 0.321157 -0.047744
-0.897376 0.294058 0.240336
0.367690 -0.198918 -0.222360
0.705474 -0.198918 -0.099433
-0.557536 0.399279 0.061808
0.623024 0.063588 -0.306777
-0.591669 -0.156698 -0.308571
0.444393 0.389871 -0.175419
-0.939119 0.035691 -0.150302
0.654397 0.101843 0.276859
-0.274471 -0.198918 0.226213
0.796213 0.119775 -0.159552
0.190915 -0.198918 0.207968
-0.279202 -0.198918 0.002893
0.262120 0.399279 -0.012434
-0.871473 0.368863 0.278181
-0.936999 -0.195810 -0.174685
-0.533713 -0.235914 -0.308571
-0.761949 -0.068417 0.309509
0.611899 0.073744 0.308618
-0.206978 0.374942 0.309509
0.136809 -0.161200 -0.308571
0.382078 -0.198918 0.289108
0.903631 -0.126658 -0.147869
-0.515717 0.232944 -0.308571
-0.294263 -0.198918 -0.216136
-0.744600 0.360641 -0.308571
0.855094 -0.030853 0.266901
0.022436 0.278813 -0.308571
0.867598 0.094391 0.198121
0.676971 -0.221801 -0.308571
-0.036033 0.399278 0.233251
-0.445343 0.008342 0.309509
-0.911996 0.248447 0.010348
-0.877861 0.314336 -0.308564
-0.939119 0.001397 -0.145131
0.761598 0.056329 -0.300634
0.162154 0.398962 -0.243709
0.659886 -0.032095 -0.308571
0.795517 -0.198918 0.035578
-0.226635 -0.187910 0.309465
0.209436 -0.198918 -0.108979
0.040431 0.241507 0.309509
0.176240 -0.186363 0.309484
0.454376 0.217733 0.309509
0.741029 -0.255241 0.179711
-0.149626 0.100714 0.309509
0.813775 -0.184725 -0.308570
0.700690 -0.306585 -0.308570
0.212892 0.399279 -0.152923
-0.019525 0.035192 -0.308571
0.454631 -0.025204 -0.308571
0.508068 -0.198918 0.177963
-0.341994 0.249641 -0.308571
0.062635 -0.198918 -0.263961
-0.585308 0.033499 0.326366
0.169685 0.094265 0.309509
0.153761 0.380917 0.309178
-0.341700 0.399279 0.194426
-0.289756 0.290552 0.309509
-0.168968 -0.020295 0.309509
0.355939 0.224685 0.309509
-0.449217 0.399279 0.229165
-0.728262 0.101947 0.309509
-0.909940 -0.198918 -0.174260
0.656620 -0.198918 -0.004790
0.035523 -0.106311 0.309509
0.441035 0.395242 -0.054066
0.083376 0.399279 0.171503
-0.670681 0.399279 0.042787
-0.304023 -0.198918 0.129153
-0.340785 0.179339 0.309509
0.790429 -0.223994 -0.308523
0.391505 0.421342 0.002635
0.290164 -0.124624 -0.308571
-0.646374 0.399279 0.179908
0.148606 -0.124607 0.309509
-0.080749 -0.198918 0.192484
-0.661229 0.105574 0.309509
-0.472935 0.393809 -0.272530
0.030203 0.399279 -0.048728
0.845407 -0.115408 0.304246
-0.615632 -0.075066 0.309500
-0.775297 0.399279 0.047339
0.422994 0.399279 -0.128898
-0.467310 -0.116966 -0.308402
0.300200 0.399279 -0.059202
-0.371978 0.391189 -0.286746
0.310344 0.188947 0.309509
0.883062 -0.198918 0.161229
-0.905011 0.270239 0.046721
0.894042 -0.085136 -0.137562
-0.353656 -0.198918 0.054645
-0.136807 -0.087470 0.309509
0.757844 -0.183397 -0.308571
0.091618 0.399279 -0.176907
-0.646275 0.389471 0.297012
-0.641918 -0.097300 -0.308571
0.160285 -0.198918 0.106820
0.121462 0.399279 -0.031956
0.321274 -0.108534 -0.308571
0.526594 0.198634 0.087736
-0.583285 0.399279 0.006793
-0.412978 0.399279 -0.200477
0.782088 0.125615 0.032431
0.901281 -0.116479 0.050779
0.514266 -0.198918 -0.211551
-0.134884 -0.029881 -0.308571
-0.533044 0.288214 -0.308571
0.525560 0.184622 -0.307575
-0.877492 0.071284 -0.308571
-0.314537 0.351402 -0.308571
-0.526247 0.386521 -0.306198
-0.939119 0.012504 -0.293407
0.731748 -0.336806 -0.273622
0.742760 0.133527 -0.117861
-0.496990 0.399279 0.173594
-0.939119 -0.085949 0.047683
0.711184 -0.204851 0.170194
-0.489067 0.169038 0.309509
0.365288 -0.063562 -0.308571
-0.471182 0.399279 0.030550
-0.302119 -0.198918 -0.189186
-0.857065 0.399279 0.016190
-0.807544 -0.138459 -0.308571
0.432015 0.398986 -0.205483
-0.531228 0.310277 0.309509
0.009353 -0.198918 -0.202904
-0.626016 -0.198918 0.138288
0.278728 0.172412 -0.308571
-0.387281 0.027155 0.309509
-0.879275 0.333698 0.308848
-0.362900 -0.076106 0.309509
0.550559 0.056515 0.309509
-0.611151 0.248740 -0.308571
0.045728 -0.151624 0.309509
-0.771127 0.395471 0.264443
0.156995 0.399279 -0.175651
-0.937114 0.169864 0.233879
0.531070 -0.198918 0.195294
0.328141 0.399279 0.201686
0.580385 -0.255353 0.211656
-0.939119 -0.037490 0.067138
-0.939119 -0.024383 -0.044265
-0.405465 0.399278 -0.233689
0.720677 -0.338635 0.237575
-0.017184 -0.198918 0.280145
0.612969 0.159641 -0.111357
-0.090561 0.043329 0.309509
-0.173389 0.136646 0.309509
-0.233853 0.399279 -0.022535
-0.205180 0.108734 0.309509
-0.884885 0.333028 0.142405
0.652281 -0.198918 0.081782
0.093273 0.399279 -0.147273
0.859583 0.064087 -0.028374
0.604410 0.160580 0.221418
0.043055 0.164509 0.309509
0.023204 0.399279 0.111324
0.443755 0.391288 -0.085583
-0.842157 0.399279 -0.074631
-0.346519 0.351956 0.309509
-0.627198 0.099273 0.309509
-0.610577 -0.198918 -0.029610
0.241595 -0.198918 -0.184957
0.309059 -0.198918 -0.065221
0.026689 0.399279 -0.083836
0.492297 -0.198918 0.038773
-0.158755 -0.198918 0.271898
-0.816869 -0.166995 -0.308571
0.844815 -0.241057 0.240757
-0.551502 0.116917 0.309509
-0.241285 0.269580 0.309509
0.285813 0.063828 -0.308571
-0.840942 0.395906 0.262086
-0.768279 0.218488 0.309509
-0.432680 -0.181437 -0.308391
-0.589322 -0.215934 0.178280
0.191224 0.043364 -0.308571
0.259613 0.153195 -0.308571
0.392418 0.399279 -0.195071
-0.398174 -0.197468 0.304214
-0.125911 0.211218 -0.308571
0.276212 -0.071573 -0.308571
0.431942 -0.198918 -0.229408
0.519767 0.214532 -0.162785
-0.904327 0.272372 -0.100337
-0.375287 0.399279 -0.010227
-0.829988 0.046389 0.309509
0.500363 0.236886 0.308956
-0.949259 -0.032137 -0.239883
0.800304 -0.188671 0.309464
-0.490143 -0.177232 0.309491
-0.379297 0.334475 -0.308571
0.567526 0.167023 0.245960
-0.820789 -0.198918 -0.278258
-0.175959 -0.198918 -0.095025
0.099838 -0.056711 0.309509
0.494394 0.270602 -0.269085
0.794703 -0.198918 -0.009917
0.892909 -0.000602 -0.262254
0.599407 0.162369 -0.156842
-0.887362 0.325298 -0.142367
-0.169819 -0.146134 -0.308571
-0.691683 -0.037286 -0.308571
0.466082 -0.198918 0.186915
-0.535728 -0.298169 0.309509
-0.456486 -0.199441 -0.308571
-0.539909 -0.333914 -0.226314
-0.006686 0.399279 0.184183
0.096335 0.171841 -0.308571
0.194199 0.262457 0.309509
0.203426 -0.192899 0.309405
-0.507916 0.024496 0.309509
-0.436165 0.343628 -0.308571
-0.516556 -0.051412 0.309324
0.496267 0.269275 -0.151635
-0.790554 -0.198918 -0.290074
0.819580 0.088036 -0.239286
0.049161 -0.198918 -0.193256
-0.678978 0.201929 -0.308571
-0.400445 0.221698 -0.308571
-0.808382 0.399279 0.003707
-0.654810 -0.312551 0.182358
-0.436628 -0.060536 -0.308571
-0.408491 0.352855 -0.308571
0.263421 0.386515 -0.306203
-0.246465 0.399279 -0.214325
0.374198 0.399279 -0.116434
0.401387 -0.109275 -0.308571
-0.595252 -0.204020 -0.168301
-0.946358 0.062701 -0.244427
-0.897668 0.110755 -0.308571
0.305848 0.349535 -0.308571
0.642379 0.086078 -0.293483
-0.893116 0.307349 0.024365
-0.413234 0.399279 -0.135338
-0.273724 -0.198918 -0.053182
-0.796302 0.334426 0.309509
-0.646333 0.150924 0.309509
0.333648 0.388060 0.302509
-0.824118 -0.198918 0.139882
0.831210 0.020132 0.296685
0.040829 -0.198918 -0.025920
0.003917 -0.164796 -0.308571
-0.041332 -0.191558 0.309421
-0.939829 -0.102067 -0.037720
-0.598711 0.253334 0.309509
-0.266458 -0.088425 -0.308571
0.849873 -0.222655 0.275020
-0.650747 0.117586 -0.308571
0.514204 0.213559 0.307639
-0.645272 -0.190209 -0.308571
-0.337039 0.367460 -0.308571
0.178174 -0.198918 -0.119242
0.859925 0.017167 0.197513
-0.893300 0.207428 -0.308571
-0.618135 -0.326671 -0.179372
0.400470 0.396917 0.256602
0.165189 -0.053259 -0.329475
0.912074 -0.163217 -0.143151
0.734603 0.095754 0.249435
-0.939119 0.112795 0.112147
-0.065187 -0.198918 -0.033620
0.787118 0.120908 0.171806
-0.939119 0.110754 0.056358
0.405927 0.208412 -0.308571
-0.203387 -0.125906 -0.308571
0.350915 0.399279 0.087095
-0.939369 0.030350 -0.238962
0.646383 -0.244401 0.179783
-0.667688 -0.116913 0.309509
0.875661 -0.194322 -0.276994
0.488077 -0.198918 -0.215582
-0.641201 -0.242426 -0.308512
-0.009590 -0.198918 -0.153375
-0.910445 0.253284 0.121197
0.838778 -0.202349 -0.166379
-0.578095 0.015381 -0.325429
0.827854 0.112200 0.159291
-0.006685 -0.198918 -0.024985
0.173302 -0.198918 0.268709
-0.223883 -0.122227 0.309509
0.198766 -0.197949 -0.301222
0.432404 -0.198918 0.126269
0.327586 0.060707 0.309509
-0.339385 0.278549 -0.308571
0.894302 -0.095091 -0.172900
-0.902881 0.276882 -0.069198
0.017886 0.104992 0.309509
0.853527 0.090311 0.001666
-0.341828 0.399279 -0.119600
0.122601 0.393107 0.277280
-0.424615 -0.027647 -0.308571
0.407891 0.399279 -0.106678
-0.831528 0.399279 -0.105813
-0.089805 0.399279 0.072834
-0.800776 -0.198918 0.041695
-0.461423 -0.277840 -0.284848
-0.856265 -0.198918 0.107849
-0.558516 0.399279 -0.086769
0.254363 0.096205 -0.308571
0.536964 -0.198918 -0.251842
-0.357098 0.399279 -0.143119
0.242908 0.399279 -0.136603
0.087347 0.197696 0.309509
0.485368 -0.198918 -0.044196
-0.872939 0.370294 -0.165087
-0.334768 -0.198918 0.110753
0.830643 -0.270180 -0.302995
-0.710874 -0.247417 -0.277250
0.595152 0.158138 0.263786
0.329987 0.399279 -0.093378
-0.588770 0.399279 -0.038293
-0.440526 -0.137142 -0.308190
-0.806623 0.399279 0.168838
-0.340242 0.209680 0.309509
-0.313465 0.362741 0.309509
0.785015 -0.194265 -0.308570
-0.301682 -0.198918 -0.100727
0.429070 0.185849 0.309509
0.755213 0.131022 0.122914
-0.707252 0.397147 0.255352
0.277069 0.398658 -0.246074
-0.939119 -0.035241 -0.147414
0.707778 -0.198918 0.069243
0.056866 0.203765 0.309509
-0.083138 -0.085436 0.309509
0.681866 -0.066148 0.309370
-0.004528 0.399279 0.057430
-0.260344 0.345535 0.309509
0.639099 0.057524 0.304592
-0.939119 -0.142866 0.253250
0.463824 -0.105138 0.309509
-0.885919 0.329802 -0.208797
0.640623 -0.198918 -0.116027
0.650666 0.029578 -0.306601
-0.922283 0.216356 -0.065847
-0.407613 0.136743 0.309509
-0.204573 0.399279 -0.017002
-0.479377 0.131702 0.309509
-0.591923 0.314091 0.309509
-0.617141 -0.322963 0.309500
-0.142931 -0.026832 0.309509
0.042557 0.399278 -0.232106
-0.227188 0.244116 -0.308571
-0.181604 -0.198918 0.113395
0.889028 -0.063420 0.062297
-0.492622 -0.278917 -0.178772
-0.606984 -0.240493 -0.178772
-0.498091 0.310598 0.309509
0.271717 0.304408 -0.308571
-0.891340 0.312887 0.161453
0.469557 -0.198918 0.103453
0.123919 -0.198918 -0.021097
0.873753 0.002722 0.116905
0.870157 -0.198918 -0.092222
-0.773475 0.399279 -0.159171
0.570945 0.155688 -0.293940
-0.469445 0.399279 0.161381
0.504987 0.246527 -0.263882
-0.834113 -0.198918 -0.224466
0.514623 0.223306 0.271548
-0.457880 -0.267958 0.307753
-0.939119 -0.023182 0.091101
-0.655565 -0.310820 0.308053
-0.029960 0.213730 0.309509
-0.512231 0.338647 0.309509
-0.933401 0.181669 -0.101162
-0.476807 0.044248 0.309509
0.360370 0.325991 0.309509
-0.126553 -0.198918 0.171064
0.393591 0.399840 0.024698
-0.064206 -0.120978 0.309509
0.124412 -0.192907 0.309405
-0.266026 0.197172 -0.308571
-0.377824 0.164724 0.309509
-0.557023 0.399279 0.092068
0.567659 -0.214232 0.280005
-0.086546 0.399279 0.133866
0.482278 0.301864 0.032727
-0.838598 -0.198918 -0.138315
0.569845 0.168317 -0.070949
0.758016 -0.055235 0.308816
0.893081 0.055726 0.205170
0.743084 -0.198918 0.081278
-0.274229 -0.198918 -0.245155
-0.269814 -0.198918 -0.198639
-0.260000 -0.116243 -0.308571
0.068898 -0.198918 -0.014204
0.643103 0.153578 -0.179582
0.450720 0.375381 0.058409
-0.368311 0.267665 0.309509
0.816112 -0.198918 -0.028691
0.519922 0.214170 0.052286
-0.612136 -0.116438 -0.308490
0.848003 -0.231661 -0.263697
0.587211 -0.269842 -0.293476
0.228334 0.256101 -0.308571
0.636237 -0.198918 -0.059594
0.432892 0.345352 -0.308571
-0.419873 0.043918 -0.308571
-0.760706 -0.030161 0.309509
0.462294 0.348418 -0.196735
-0.938574 -0.084843 0.303373
-0.260847 0.399279 0.056238
0.045620 0.151955 -0.308571
0.340700 0.251574 0.309509
-0.917772 0.230426 0.108811
-0.753812 0.371668 0.309509
0.628184 -0.253960 0.309488
0.493259 0.276283 0.036649
-0.579416 -0.198918 0.070095
0.766797 0.096252 0.266110
-0.257736 0.399279 0.025874
-0.318513 0.305404 0.309509
0.138422 0.399279 0.170041
-0.462018 0.399279 -0.228381
-0.835684 -0.153089 0.309509
-0.517720 -0.298810 -0.178772
0.245417 0.391234 -0.286502
-0.121884 -0.158365 -0.308571
-0.291893 -0.198918 -0.074682
0.089292 0.120202 -0.308571
-0.791660 -0.198918 0.130823
0.876554 0.019712 0.284496
-0.939119 -0.122525 0.133551
0.497977 -0.036170 -0.308571
-0.640511 -0.238519 0.309474
-0.847585 -0.198918 -0.270353
0.661039 -0.329925 -0.241428
-0.066208 0.398324 -0.247917
0.154728 0.399279 -0.020575
0.074114 0.042679 0.309509
-0.939119 -0.160084 0.231623
-0.795766 -0.198918 0.175754
0.816312 -0.198918 -0.061598
-0.708869 0.307905 -0.308571
-0.436287 0.395555 0.263988
0.897978 -0.102181 -0.065257
-0.763992 0.295744 -0.308571
-0.484843 -0.303873 0.252120
0.533372 0.184401 0.208343
-0.541371 -0.017924 -0.308571
-0.407278 -0.052213 -0.308571
0.619981 -0.306932 0.222277
0.463414 0.345811 -0.223325
0.381068 0.239240 0.309509
-0.708096 -0.251041 -0.305797
-0.845245 -0.022031 -0.308571
0.664524 -0.198918 -0.074550
-0.460547 0.112449 0.309509
-0.939119 0.077982 0.120820
0.409207 0.399279 0.178601
-0.313953 0.125129 0.309509
0.418613 0.399279 0.034515
0.526025 0.197479 0.265146
0.198804 0.131733 0.309509
-0.922279 0.214663 0.287763
0.043244 0.399279 -0.172941
0.893081 0.068004 -0.195543
-0.939119 -0.088379 0.199742
-0.142573 -0.198918 -0.098100
0.682440 -0.098321 0.309508
-0.301739 0.151656 -0.308571
-0.939463 0.097641 0.274972
-0.939119 -0.054171 0.174394
0.483072 0.300014 -0.061360
-0.563760 -0.206574 0.172175
0.040938 0.343841 0.309509
0.314036 0.136997 -0.308571
0.838395 -0.257837 -0.248805
0.884025 -0.172460 -0.250951
-0.601108 0.094872 -0.308571
0.780115 -0.041954 0.298569
0.440904 -0.198918 0.204725
-0.829907 -0.198918 0.254392
-0.417379 0.215691 0.309509
0.889274 -0.064488 0.129335
-0.411215 -0.198970 -0.206103
-0.482931 -0.024586 0.309509
-0.273662 -0.138796 0.309509
-0.201344 0.395060 -0.265739
0.699124 0.091383 -0.285182
0.177215 -0.198918 -0.010755
-0.565602 -0.198918 -0.019555
-0.533669 -0.198918 0.119899
-0.719219 0.391147 -0.286972
-0.130398 0.399279 -0.046858
-0.195662 0.399279 -0.201020
0.277527 -0.198918 0.266965
0.189130 0.295027 -0.308571
0.078247 0.198013 -0.308571
0.805953 -0.024538 0.290591
0.164022 0.071870 -0.308571
0.473029 0.323410 0.045266
-0.737041 0.399279 -0.205876
-0.917243 0.232078 -0.187729
-0.629038 0.281020 0.309509
-0.872986 0.370148 0.093159
-0.490794 -0.305557 -0.306750
-0.769639 -0.070867 -0.308571
-0.839188 0.399279 -0.171714
-0.824833 0.185369 -0.308571
-0.343152 -0.034061 0.330530
-0.879107 0.260559 0.309509
-0.051892 0.399279 -0.204152
0.360071 0.398598 -0.246403
-0.300476 -0.097094 0.309509
-0.170051 0.169651 0.309509
0.712794 -0.299997 0.309496
-0.429116 -0.204297 0.191743
-0.696817 0.399279 0.223955
0.243706 -0.198918 0.072135
0.741309 -0.003370 0.303107
-0.018129 -0.046456 -0.308571
0.721524 -0.215570 -0.177216
0.862412 -0.198918 0.109447
0.358901 0.063388 0.309509
0.479992 0.193482 -0.308571
0.704418 0.141241 -0.082258
-0.708479 0.379334 -0.308344
0.113087 0.310546 -0.308571
0.149782 0.399279 -0.135326
0.000149 0.399279 -0.073030
0.381890 -0.198918 -0.280533
0.140857 0.137061 0.309509
0.285838 -0.198918 0.144776
-0.273787 0.399279 -0.124544
0.431626 -0.118121 0.309509
0.700028 0.139702 0.196634
-0.158899 0.180748 -0.308571
-0.940015 -0.168371 -0.024990
0.903263 -0.188018 0.208752
-0.745193 -0.198918 -0.281656
-0.508213 -0.128700 0.309504
-0.939119 -0.083404 -0.208325
0.198419 0.293083 0.309509
-0.411709 -0.199033 0.216929
-0.663317 0.399279 -0.082109
-0.939119 0.100064 -0.058720
0.213741 0.158887 -0.308571
-0.449967 0.150924 -0.308571
0.271399 -0.198918 -0.045720
0.204469 -0.170438 -0.308571
-0.681675 -0.198918 -0.061697
-0.619301 -0.261845 0.179711
-0.096582 0.199060 -0.308571
0.787558 -0.316164 -0.279753
-0.457610 -0.213964 0.309509
0.843231 -0.074072 -0.281579
0.901570 -0.198917 -0.176764
0.119213 0.254388 -0.308571
-0.922940 0.214303 0.168394
0.244900 0.311592 0.309509
-0.728378 -0.197188 -0.303529
0.420507 -0.198918 -0.155116
-0.208368 -0.198918 0.255200
0.278190 0.205949 0.309509
-0.710623 0.067981 0.309509
-0.570178 0.251130 0.309509
-0.664322 -0.209160 0.175150
-0.327486 -0.055425 -0.331320
-0.556852 0.109508 -0.308571
0.327584 -0.198918 -0.260518
-0.867060 0.395675 -0.083082
0.453319 0.369326 -0.066619
-0.894999 0.301474 -0.129560
-0.787976 0.399279 -0.014224
0.143133 0.089775 -0.308571
-0.129381 0.004090 0.309509
0.406321 0.010127 -0.308571
-0.939119 0.137184 -0.296351
-0.277726 0.399279 0.084716
-0.281077 -0.198918 -0.173054
-0.133705 0.237311 -0.308571
0.910416 -0.198912 -0.097617
-0.425401 -0.023317 0.309509
-0.663351 -0.024050 0.309509
0.870732 -0.050968 -0.209798
0.861275 -0.049430 0.236144
-0.025425 0.399279 -0.066068
0.526806 0.198143 0.150130
-0.331955 0.395949 -0.260915
-0.551179 -0.267778 -0.178773
-0.406954 0.163660 0.309509
0.248127 0.332987 -0.308571
-0.667127 0.274284 0.309509
0.564661 0.169360 0.166172
0.106214 -0.198918 0.091672
-0.061865 0.141221 0.309509
-0.423015 0.346264 0.309509
-0.605480 -0.198918 0.025486
0.413334 -0.198918 0.191564
0.018645 0.377423 0.309407
-0.938915 0.159350 -0.049254
-0.583228 0.247202 -0.308571
-0.413422 -0.105118 0.309509
0.281925 -0.198918 -0.075903
-0.873786 -0.198918 -0.007201
0.914670 -0.174465 0.014974
0.563119 -0.051931 -0.308571
-0.473808 -0.204719 -0.169104
0.531824 0.061847 -0.308571
-0.738732 -0.072273 -0.308571
0.230535 -0.071355 0.311642
-0.355196 0.399279 -0.229682
0.279713 0.238294 0.309509
0.334434 -0.198918 -0.032794
-0.519760 -0.035699 -0.308570
-0.436245 -0.216041 -0.268606
0.177130 -0.132704 0.309509
0.504790 0.249421 0.039870
-0.172385 0.068397 0.309509
-0.939119 -0.169328 0.162382
0.100944 -0.067678 -0.308571
-0.285767 0.399279 -0.072145
-0.180001 -0.198918 -0.269965
-0.096856 0.160883 -0.308571
0.429380 0.034350 0.309509
0.897225 -0.098917 0.079741
0.104862 -0.095340 -0.308571
0.760725 0.034989 0.289556
-0.490433 0.399279 0.114216
0.822285 -0.242107 0.179709
-0.862733 0.398046 0.079025
-0.792771 -0.063350 0.309509
0.758117 -0.066424 -0.308151
-0.171314 0.397126 0.255464
0.444121 0.388264 0.255062
0.209848 -0.157568 0.309509
0.061031 0.325665 -0.308571
-0.518849 -0.324726 0.305368
0.844857 0.087188 0.214186
0.778995 -0.198918 -0.101278
-0.165179 -0.198918 -0.035106
0.807680 -0.142255 -0.308570
-0.160401 -0.198918 -0.062653
-0.939119 -0.032993 0.020194
0.497118 0.267294 0.063975
0.827509 -0.276066 -0.274117
-0.323499 0.399279 -0.046564
-0.263128 0.374288 0.309509
-0.844489 -0.106961 0.309509
-0.109223 -0.198918 -0.225835
0.402251 -0.076858 0.309509
-0.621019 -0.216001 -0.177365
0.877478 -0.159843 0.262613
0.662191 -0.294842 0.309509
0.114449 0.273147 0.309509
-0.020894 -0.152714 -0.308571
0.808298 -0.299374 0.233617
0.497233 0.266405 0.248991
0.700822 -0.325816 0.309482
-0.700481 0.388159 0.302148
0.901290 -0.116521 -0.015232
-0.602982 -0.193433 -0.308571
-0.731337 0.399279 0.204050
-0.316530 0.195551 -0.308571
0.211449 -0.198918 -0.205618
-0.668504 0.399279 0.199438
0.833843 -0.245702 -0.179190
-0.087033 0.387405 0.304909
-0.047166 -0.198918 0.282183
-0.493604 0.399279 -0.088452
0.873020 -0.154243 -0.270357
0.392144 -0.053312 -0.308571
0.006068 -0.198918 0.172557
0.570435 0.168198 -0.153083
0.304281 0.399279 -0.120255
-0.678254 0.301426 0.309509
-0.178363 0.399279 0.120662
-0.059255 0.249585 -0.308571
-0.574620 -0.339163 -0.277780
-0.280440 0.050491 -0.308571
0.290529 -0.126141 0.309509
0.393073 -0.198918 0.061005
0.545390 0.174248 -0.093348
-0.670326 -0.177008 0.309505
-0.132795 0.399279 0.166176
-0.310454 0.399279 0.193497
-0.195341 -0.198918 0.041326
0.319233 0.261767 -0.308571
0.794753 -0.198918 0.096396
-0.769483 -0.198918 0.237071
0.752310 -0.145095 -0.308571
-0.766416 -0.141981 -0.308571
-0.612765 -0.334939 0.256756
-0.489632 -0.198918 0.018933
-0.518577 0.030695 -0.308571
-0.185674 0.175467 -0.308571
0.616067 -0.297316 -0.179647
0.229408 -0.019617 -0.322997
0.371256 -0.176024 0.309509
0.304611 0.007046 -0.308571
0.790971 -0.023800 -0.292457
-0.561265 0.151348 0.309509
-0.686152 0.084232 -0.308571
0.570938 -0.001211 0.309509
0.364596 0.392539 -0.279420
0.392217 -0.198918 -0.146252
-0.142198 -0.198918 -0.232555
0.597857 -0.284131 0.235649
0.701925 -0.124004 0.309509
-0.866372 0.396673 -0.011081
-0.712260 -0.198918 0.017985
-0.374203 0.277533 -0.308571
-0.096404 0.053006 -0.308571
0.810917 0.089970 -0.207782
0.836047 -0.220261 0.309502
0.610135 0.027759 0.309509
-0.695960 -0.198918 -0.083942
0.590689 -0.268418 0.181349
-0.939189 -0.150779 -0.048638
-0.786381 -0.094916 -0.308571
-0.029431 0.399279 -0.189034
-0.439098 -0.093398 -0.308571
0.896710 -0.096692 0.141381
0.151726 0.137908 -0.308571
-0.932295 0.185121 -0.202226
-0.806296 0.123988 -0.308571
0.833512 0.082228 0.297743
-0.066595 0.026454 -0.308571
-0.251407 0.399279 -0.175937
0.809316 -0.259838 -0.178772
-0.560040 -0.198918 0.045525
-0.891203 0.313316 0.096130
-0.520270 0.397785 -0.250904
0.475422 0.166282 -0.308571
0.722480 -0.104480 -0.308324
0.644314 -0.221903 0.309507
0.671625 -0.333838 0.222227
0.102871 0.044041 -0.308571
-0.939119 -0.033661 -0.114808
-0.473383 0.002553 0.309509
0.208516 0.062741 0.309509
0.520153 0.213631 0.211474
0.355360 -0.198918 -0.196004
0.472933 0.154401 0.309509
-0.415476 0.399279 0.167092
0.368182 0.394969 0.267168
0.762499 -0.040292 -0.301538
0.490448 0.118387 0.309509
-0.223878 -0.198918 -0.163091
0.325694 0.399279 0.156964
0.000081 0.126617 0.309509
0.654063 -0.258253 -0.178787
0.692871 -0.198918 -0.002555
0.133219 -0.047427 0.309509
0.918210 -0.193399 -0.072493
-0.303860 0.399279 -0.168287
0.464824 0.043872 0.309509
-0.820321 -0.198918 -0.113658
-0.117370 -0.198918 0.198436
0.091718 0.278372 -0.308571
-0.053570 0.399279 -0.171357
-0.043616 0.227084 -0.308571
0.202700 -0.079833 -0.308571
-0.672850 -0.192524 -0.308568
0.062106 0.399279 0.023085
0.754567 0.096341 -0.263160
0.215584 0.152472 0.309509
0.890264 -0.001149 -0.232839
-0.260099 0.399279 0.218447
-0.623131 0.110368 -0.308571
-0.721361 0.399279 -0.144869
-0.220590 0.300421 -0.308571
0.080620 0.399279 0.132496
0.215527 0.032195 -0.308571
-0.152063 -0.198918 -0.125235
0.175175 -0.070407 -0.311204
-0.304977 -0.198918 0.215653
-0.252598 -0.198918 0.202969
-0.525135 -0.113333 -0.308539
-0.884172 0.335249 0.043756
0.678732 0.146409 0.087117
0.076206 0.399278 0.234821
-0.398238 0.193200 0.309509
0.792577 0.087338 -0.238214
-0.814382 -0.198918 -0.055389
0.470930 0.328299 -0.098012
0.160512 -0.063952 0.311215
0.225493 -0.198918 0.050683
0.230432 -0.198918 -0.012122
-0.476525 -0.198918 -0.065802
-0.290403 0.399279 0.173701
-0.076184 0.399279 -0.011499
0.715625 0.115160 0.237019
0.663261 0.082203 0.297767
-0.545764 -0.182160 -0.308571
0.028808 0.374266 -0.308571
0.268925 0.399279 -0.038643
0.877706 -0.022455 0.281155
-0.396306 0.255441 -0.308571
-0.939119 -0.176464 -0.056319
-0.495606 -0.309660 0.307272
0.413381 0.399279 0.212446
0.511741 -0.198918 0.216244
-0.458210 0.399279 -0.036099
-0.409005 -0.198918 -0.041695
-0.506520 0.399279 -0.031156
0.473424 -0.118215 -0.308571
0.442790 0.240443 -0.308571
-0.152642 -0.104389 -0.308571
0.074449 0.033203 -0.308571
-0.713207 0.080700 -0.308571
0.527627 0.196237 -0.019430
0.481851 -0.198918 -0.108329
-0.715351 -0.235095 0.261230
0.607430 -0.198918 0.034739
0.779015 0.090834 0.216605
-0.384075 0.390922 0.289133
-0.191244 0.399279 -0.074079
0.758394 0.016075 -0.298394
-0.003205 -0.198918 0.119985
-0.385315 -0.198918 0.209748
0.472341 -0.198918 -0.134478
-0.538281 -0.079416 0.309509
0.224556 0.105762 -0.308571
-0.491481 -0.309034 -0.185889
0.886092 -0.132224 -0.220186
-0.647057 -0.198918 -0.076382
-0.848197 0.214667 0.309509
0.904944 -0.132346 0.140063
-0.604863 -0.181515 0.309509
-0.336501 -0.059874 0.325931
-0.740460 0.399279 -0.092525
0.446069 -0.149447 0.309509
-0.939119 -0.074796 -0.252914
0.829137 -0.198918 -0.140902
0.419860 0.254086 -0.308571
0.475754 0.317063 -0.210080
0.910357 -0.155782 0.048195
-0.302250 -0.198918 0.278420
-0.421165 -0.200563 -0.290976
-0.751257 0.028491 0.309509
-0.105976 0.392899 0.278407
-0.545202 -0.298838 -0.178772
-0.394941 0.368324 0.309509
0.802898 0.010093 0.302095
-0.678340 -0.198918 -0.150079
0.007940 -0.025419 -0.308571
0.303747 -0.045959 0.309509
0.012095 -0.157142 0.309509
-0.858732 -0.198918 -0.109356
0.867235 0.030948 0.020120
0.074652 0.399279 -0.014222
0.280435 0.399279 -0.077791
-0.889205 0.319549 -0.020449
-0.562026 0.399013 0.243387
-0.660378 -0.312168 0.268774
-0.344252 -0.067116 -0.312431
0.564453 -0.208155 -0.237823
-0.459388 0.191544 0.309509
-0.094673 0.398747 0.246517
-0.852967 -0.131604 -0.308571
0.080838 0.242586 0.309509
0.500760 0.253606 0.286231
0.381566 0.399279 0.162746
0.828712 -0.198918 0.136993
-0.229270 0.392568 -0.279267
0.897098 -0.098368 -0.038839
0.281958 -0.097849 0.309509
-0.796329 0.084692 -0.308571
-0.826393 -0.198918 -0.250219
-0.643778 0.249697 -0.308571
-0.710622 0.399279 -0.114978
-0.869412 0.376834 -0.282643
0.879903 -0.140857 0.243714
-0.939119 -0.126591 0.093998
-0.642431 -0.323621 0.241888
-0.689180 -0.220252 0.179462
-0.224232 -0.198918 0.192023
-0.939119 0.109325 -0.115302
0.028240 0.396648 -0.257122
-0.601549 -0.336152 0.183710
0.094612 0.399279 0.070862
0.588016 -0.271344 -0.215527
-0.027526 -0.198918 0.109598
-0.915720 0.002153 0.309509
0.917332 -0.186188 0.087200
-0.884268 0.334951 -0.166936
0.867872 0.019053 -0.177442
-0.100022 -0.198918 0.074045
0.086521 -0.027816 0.309509
0.464414 0.105588 -0.308571
-0.927299 0.200703 0.206377
-0.611144 -0.071221 -0.308571
-0.740992 0.399279 -0.123218
0.488156 -0.064755 -0.308571
-0.939119 0.092254 0.081719
-0.932326 -0.045305 -0.308257
0.872133 0.009737 -0.026566
-0.949347 -0.130939 -0.012768
-0.819961 0.239803 0.309509
0.183413 0.399279 0.147827
-0.369330 0.079117 0.309509
0.792322 -0.312461 0.250439
0.881503 -0.030839 0.129342
-0.105932 -0.198918 -0.148932
0.078459 0.133289 0.309509
0.082602 -0.120223 0.309509
0.574600 -0.241972 -0.196321
-0.909495 -0.198918 0.029291
0.459812 0.078537 0.309509
-0.809145 -0.198918 -0.138245
0.639093 -0.320417 0.245450
0.516490 -0.006815 -0.308571
0.533867 0.183440 -0.063834
0.748939 0.128204 -0.191490
0.702787 -0.084784 -0.308571
-0.633115 0.364803 -0.308571
-0.197171 -0.116245 0.309509
-0.939119 -0.092149 0.083626
0.171962 0.128884 0.309509
-0.249546 -0.198918 0.095579
0.840851 -0.235289 -0.308420
-0.939069 -0.189254 0.181652
-0.596110 -0.274150 -0.178777
0.704254 -0.338663 -0.214141
0.484419 -0.198918 -0.186369
0.518839 -0.054724 0.309509
-0.339876 0.132082 0.309509
-0.001852 -0.198918 -0.073580
-0.619721 -0.298954 0.179709
-0.425527 0.130777 -0.308571
-0.135022 0.399279 0.044760
-0.708617 0.275428 -0.308571
-0.068576 0.059823 -0.308571
0.267731 -0.198918 0.240827
-0.084410 0.399279 -0.225857
0.732751 -0.198918 0.019239
0.105039 -0.198918 0.204141
-0.530698 0.399279 -0.083832
-0.805061 0.399279 0.034188
0.233692 -0.175567 0.309509
0.391305 0.122262 0.309509
0.886512 0.066384 -0.301232
0.481492 0.303695 0.176574
0.121818 0.399279 0.112391
-0.712988 0.052056 -0.308571
-0.924192 -0.197722 -0.302191
0.040870 0.258776 -0.308571
-0.819869 0.005444 0.309509
-0.427554 0.095657 0.309509
-0.939119 0.088136 0.038556
-0.407629 0.019464 -0.308571
-0.739448 -0.199789 0.291577
0.303413 0.396545 0.258616
0.410657 0.400729 -0.014021
0.815714 -0.292011 0.206117
0.107064 -0.198918 0.151322
0.765636 -0.323928 -0.307360
0.536934 0.180570 0.182383
0.077519 0.149418 -0.308571
-0.812797 -0.198918 0.111032
-0.593520 0.277142 -0.308571
-0.117413 0.305915 0.309509
0.361408 0.344128 -0.308571
-0.787910 0.399279 0.200651
0.594015 -0.279365 -0.242368
-0.921158 0.219866 -0.142203
0.008647 -0.198918 -0.285365
0.697129 0.137509 0.223474
0.572924 -0.237498 0.230741
0.593691 0.155722 -0.279832
0.747396 -0.333963 0.205416
-0.297236 0.147277 0.309509
-0.562391 -0.248683 -0.308571
0.172990 -0.098427 -0.308571
-0.939119 -0.126136 0.185074
0.481641 -0.198918 -0.264765
0.749817 -0.198918 -0.098939
-0.716854 0.399279 0.115878
0.853694 0.089587 -0.097348
-0.814630 -0.198918 0.197406
-0.820658 0.294056 -0.308571
-0.537113 0.399279 -0.057899
0.855965 -0.122431 -0.293017
0.832204 -0.006282 -0.301203
-0.538899 0.399279 -0.199748
0.163752 0.110900 -0.308571
-0.652198 0.386354 -0.306355
0.257376 -0.018238 -0.308571
0.222033 0.399279 -0.190380
0.802479 -0.198918 -0.086352
-0.395548 -0.198918 -0.265678
-0.447446 0.156691 0.309509
0.397395 -0.198918 0.146213
-0.216579 0.391631 0.285284
0.892978 -0.010772 0.262414
-0.009384 0.187189 -0.308571
-0.729197 0.187464 0.309509
0.394941 0.399279 -0.068902
-0.001537 0.399279 -0.176775
-0.319714 -0.198918 0.019037
-0.331593 0.399279 0.164717
-0.913681 0.243192 -0.211998
-0.939119 -0.065893 0.076851
-0.435880 0.399279 0.107207
0.176499 0.315895 0.309509
0.486224 0.292672 -0.198940
-0.551584 -0.264158 0.309508
0.063334 0.397641 -0.251702
0.026099 -0.198918 0.068105
0.513170 0.229898 -0.127310
0.454309 0.340194 0.309408
-0.648801 0.399279 -0.048202
-0.815408 0.047262 -0.308571
-0.318129 0.399279 -0.073401
-0.456043 0.274541 0.309509
-0.544721 -0.207902 -0.172765
-0.891392 -0.198918 0.213772
-0.284573 0.259626 0.309509
0.229625 0.037910 0.309509
-0.881468 -0.103711 0.309509
0.853926 -0.209633 -0.290099
-0.424573 0.190673 -0.308571
0.649941 0.060322 -0.302659
-0.711587 -0.057766 0.309509
0.440014 0.296774 0.309509
-0.042925 0.006827 0.309509
-0.461982 -0.231388 -0.178772
0.599117 -0.198918 -0.048808
-0.897615 -0.198918 -0.060543
0.203398 -0.198918 -0.025569
-0.236392 -0.013209 -0.308571
0.126775 -0.198918 0.172045
0.796753 -0.198918 -0.132583
0.705295 0.141065 0.105177
-0.612283 -0.198918 -0.002418
0.052432 -0.198918 -0.097200
-0.618843 -0.032836 0.309509
0.255720 0.399254 0.237355
0.597459 -0.283645 0.273864
0.733884 -0.333721 -0.307445
0.471655 0.277806 -0.308571
-0.700172 -0.163987 0.309498
-0.207511 -0.198918 -0.268951
-0.243702 0.125311 0.309509
-0.921193 0.048479 0.309509
0.275299 -0.042694 -0.308571
0.611163 0.087028 -0.303210
-0.437925 -0.223597 0.214394
0.120221 -0.198918 -0.267922
-0.939121 -0.169777 0.037558
0.514850 -0.198918 0.014831
-0.458082 0.399279 -0.004475
0.268254 0.178989 0.309509
0.762867 -0.328356 -0.230167
-0.630926 -0.161108 0.309509
0.888446 -0.087336 0.185599
-0.093755 0.399279 0.187283
-0.576062 -0.126636 0.309509
-0.304717 -0.198918 -0.140722
-0.939119 -0.047809 -0.059921
-0.393437 -0.198918 0.239058
-0.410414 -0.198918 -0.178701
-0.479607 0.272032 -0.308571
0.243371 0.394328 0.270649
-0.891882 -0.156485 0.309509
-0.464084 0.100398 -0.308571
0.643935 -0.198918 0.135773
0.784565 -0.066210 0.308738
0.603187 -0.289745 -0.301695
-0.764983 0.399279 0.152032
0.425004 -0.198918 0.162114
0.248656 0.399279 -0.196731
0.581300 0.166012 0.140123
-0.883992 -0.000225 0.309509
0.664166 -0.331102 0.247645
-0.840536 -0.198918 -0.194061
0.699178 -0.118380 -0.308571
0.777704 0.058969 0.302632
0.820539 -0.053000 -0.286424
0.518274 0.218009 -0.103212
0.433125 0.392389 0.279218
0.893045 -0.000635 0.237972
0.017575 -0.189036 -0.308514
-0.033535 0.399279 0.095584
-0.623000 -0.331289 0.281358
0.729640 -0.195334 -0.308571
0.909716 -0.153687 0.163989
-0.137869 0.372397 0.309509
0.883188 -0.038137 0.052205
-0.036567 -0.198918 -0.028010
-0.548926 0.399279 0.218404
-0.215749 -0.198918 -0.105374
0.068329 0.177742 0.309509
0.639364 0.151161 -0.228217
-0.714858 -0.237170 -0.208215
-0.079154 0.245479 0.309509
-0.622166 -0.198918 -0.059253
0.676661 -0.161334 0.309509
0.275097 0.120178 0.309509
0.356140 0.084730 -0.308571
-0.939119 -0.154860 0.128486
0.151942 -0.027258 -0.311717
0.319482 0.032320 0.309509
0.882626 -0.035703 -0.014207
-0.327641 -0.198918 0.044825
-0.610103 -0.208359 0.309509
-0.605020 -0.198918 -0.109896
-0.888642 0.321305 -0.237212
0.765122 -0.327333 0.266139
-0.401554 0.282131 -0.308571
-0.340920 0.399279 -0.194071
0.152402 -0.198918 0.162130
0.182049 0.399279 -0.188162
-0.923026 0.214035 0.134505
-0.527745 -0.018929 0.309509
0.475889 0.313400 -0.269174
0.533635 -0.198918 0.037714
-0.430514 0.399279 -0.110056
-0.873095 0.369807 -0.116085
-0.244402 -0.072649 0.309509
-0.814898 -0.110471 0.309509
0.066489 -0.198918 0.267911
-0.336479 -0.198918 -0.278071
-0.710672 -0.247364 0.185496
-0.432549 -0.085334 0.309509
0.464203 0.186248 0.309509
-0.442393 0.399279 -0.144667
-0.179868 -0.198918 0.188542
0.592156 0.163828 -0.130650
-0.013052 -0.198918 -0.224163
-0.170252 0.399279 -0.107923
-0.055257 0.399279 0.019768
-0.114395 0.026981 -0.308571
0.485015 -0.198918 0.272949
0.549262 -0.198918 -0.110750
-0.432472 0.399279 0.207414
-0.277057 0.336263 -0.308571
-0.216993 0.324260 0.309509
0.490038 -0.198918 0.200307
0.774221 0.123016 -0.181575
0.625141 0.157191 -0.149984
0.379949 0.062924 -0.308571
-0.483718 0.337095 0.309509
-0.464520 0.399279 -0.076047
-0.769774 -0.198918 -0.131293
-0.637530 -0.243216 -0.178879
0.436516 0.093212 0.309509
-0.865396 -0.198918 0.229466
0.560177 -0.173504 -0.306081
0.401283 -0.198918 -0.234368
0.851054 -0.198918 -0.011651
0.522411 0.070955 0.309509
0.867216 0.031030 0.071821
-0.349881 -0.198918 -0.014021
-0.737148 -0.178120 0.309083
0.851614 -0.031238 -0.268610
-0.364324 0.399279 0.162883
0.478492 0.306596 0.275028
0.600941 0.162061 -0.081879
0.140816 0.262801 0.309509
-0.879664 0.044567 -0.308571
0.613257 -0.217515 0.309498
0.294728 -0.198918 0.015275
0.460868 0.351353 0.246886
0.137145 -0.156531 0.309509
-0.403746 -0.142631 0.309509
0.410839 0.068621 -0.308571
0.526591 0.198640 -0.085520
-0.840690 0.059294 -0.308571
0.526110 0.029895 0.309509
-0.878463 0.353062 0.208530
-0.297588 -0.002349 -0.314166
0.056974 0.096598 -0.308571
-0.939225 0.028688 0.246136
-0.756586 0.187235 0.309509
0.719427 -0.198918 0.103948
0.873033 0.004332 -0.143206
-0.301838 -0.198695 -0.298045
-0.544981 0.388023 0.302646
0.034001 0.338810 -0.308571
0.796777 -0.308830 0.280027
0.911373 -0.160184 -0.040345
-0.059426 0.030008 0.309509
-0.938395 0.165269 -0.123592
0.554595 -0.200943 0.253063
-0.940115 -0.011881 -0.271265
-0.582615 -0.338741 0.269674
0.223905 -0.198918 0.016633
-0.937262 0.169378 0.262145
0.397192 0.182826 -0.308571
-0.380300 -0.198918 -0.036570
-0.257885 0.399279 0.112171
-0.073593 -0.167447 -0.308571
0.366707 -0.198918 0.169714
0.396200 0.094631 -0.308571
-0.454509 -0.016544 0.309509
0.348148 -0.044288 0.309509
-0.008525 0.075869 0.309509
-0.187806 0.391092 0.288211
0.140851 0.399279 0.043925
-0.681916 0.399279 -0.181762
0.336830 -0.198918 -0.216016
-0.446166 -0.249878 -0.205419
-0.552653 -0.198918 0.009431
0.351130 -0.108648 -0.308571
0.852685 0.023882 0.222964
0.395886 0.330019 -0.308571
0.547937 0.152726 -0.306706
-0.363418 -0.024108 0.310799
0.436629 -0.198918 -0.178807
-0.891020 -0.014261 -0.308571
0.483464 -0.013264 -0.308571
0.412019 -0.198918 -0.266956
0.200250 0.399279 0.124540
-0.944326 -0.002838 -0.246072
-0.436249 0.130085 0.309509
0.490286 0.283209 0.160893
0.890387 0.042496 -0.202875
-0.188223 0.291562 0.309509
-0.258891 -0.198918 -0.223609
0.214017 0.399279 0.176965
-0.582725 0.169132 0.309509
-0.590670 0.307365 -0.308571
-0.002491 0.274923 0.309509
0.386316 -0.198918 -0.113901
0.408708 0.120348 -0.308571
0.243526 0.118090 0.309509
-0.040529 0.121350 -0.308571
0.708175 0.140485 -0.120401
-0.693010 0.398618 -0.246291
-0.798311 -0.198918 -0.231118
0.809603 -0.298303 -0.274950
0.052567 -0.198918 0.296200
-0.660366 -0.198918 -0.100422
-0.011166 0.399054 -0.241422
0.060104 0.399279 -0.098368
0.603654 -0.028833 0.309509
-0.060229 -0.198918 0.081558
0.888150 -0.059618 -0.123575
0.658334 -0.220738 0.179478
0.304565 -0.198918 -0.035186
-0.926218 0.126998 0.309509
-0.871205 0.163711 0.309509
-0.724749 0.045257 0.309509
-0.623116 0.399279 -0.029489
-0.920747 0.218948 -0.290856
-0.939119 0.081906 -0.109891
-0.902284 0.026085 0.309509
-0.448779 0.074681 -0.308571
-0.491166 0.399279 -0.181147
0.857298 -0.205546 -0.250309
-0.865455 -0.198918 0.257963
0.383798 0.448170 -0.000090
0.683491 -0.276508 0.309485
0.740218 -0.271039 0.309376
0.548435 -0.199611 -0.215365
-0.939119 0.132821 0.093628
-0.635866 0.040448 0.309509
0.533678 0.183806 0.004535
-0.363550 0.309392 -0.308571
-0.307792 0.252493 -0.308571
0.128344 0.399279 -0.177643
0.871566 -0.174459 0.284704
-0.037282 0.257023 0.309509
-0.939119 0.026314 0.049258
-0.651195 -0.198918 0.038336
-0.014636 0.032376 0.309509
0.691913 -0.337450 0.248674
-0.177912 0.364048 0.309509
0.414393 -0.198918 -0.055696
-0.131121 0.341276 -0.308571
0.457099 -0.198918 0.250364
-0.380348 0.039286 -0.308571
-0.103655 0.228827 -0.308571
0.666426 -0.322982 0.309487
-0.284463 0.388985 0.299124
0.637684 -0.319450 0.275254
-0.893630 -0.198918 0.063056
0.268245 -0.198918 0.123456
-0.531644 -0.331338 0.231316
0.766138 -0.305072 -0.178772
-0.575798 0.179811 -0.308571
0.191995 0.008625 -0.310060
-0.308636 0.399279 -0.007795
0.163562 0.159761 0.309509
-0.797439 -0.198918 0.245079
0.155534 0.202753 -0.308571
0.089336 -0.198918 0.173673
0.261097 -0.173914 0.309509
0.875196 -0.003524 0.021850
0.589294 0.101916 -0.307076
0.757483 0.130566 -0.018684
0.586295 -0.268021 -0.265489
0.007744 0.035410 -0.308571
0.658791 -0.329079 -0.273901
0.176184 -0.198918 -0.050901
0.591750 0.163841 -0.215617
0.796096 -0.270410 0.309509
-0.585902 -0.079687 0.309509
-0.441092 0.399279 0.151252
-0.006666 0.399279 -0.039225
0.009039 -0.198918 0.287344
-0.782182 0.110135 -0.308571
-0.943775 0.099613 0.207142
0.463708 0.340794 0.272694
-0.864806 -0.068250 -0.308571
-0.857394 0.395407 -0.263767
0.250283 -0.198918 0.006662
-0.685625 -0.198918 0.148536
-0.693166 0.393329 -0.275135
-0.519190 0.399279 0.100462
0.543861 0.174804 0.235875
-0.939119 0.069798 -0.044940
-0.879639 0.236446 -0.308571
0.800163 0.114256 -0.190347
0.069898 -0.198918 -0.165058
-0.533714 -0.217876 0.309509
-0.476882 0.137628 -0.308571
-0.596992 0.399279 0.150998
-0.451822 0.022640 -0.308571
0.038960 0.079313 0.309509
-0.446371 -0.238404 0.308719
-0.313191 0.195191 0.309509
-0.606261 -0.336191 -0.203952
-0.361896 0.179529 -0.308571
-0.584061 0.198022 0.309509
-0.939119 0.000705 -0.094210
0.830132 -0.144404 0.309506
0.045220 -0.198918 0.091590
0.091707 0.399279 -0.040713
-0.206847 -0.198918 0.006576
0.790753 0.095111 -0.274938
-0.291420 0.006385 0.311723
0.786355 -0.198918 -0.062720
-0.151536 -0.198918 0.245930
-0.141492 0.287744 0.309509
0.250038 -0.198918 0.149026
-0.416616 0.036505 0.309509
0.374845 0.399279 -0.220993
0.422152 0.123623 0.309509
-0.843099 -0.198918 0.201998
-0.736248 -0.041302 -0.308571
-0.373607 -0.198918 -0.289821
0.035606 -0.043593 0.309509
-0.167751 0.399279 0.226904
0.166414 -0.198918 -0.276313
-0.939119 -0.085164 0.143657
0.417261 0.040790 -0.308571
0.164409 0.399279 -0.075135
-0.086333 0.249307 -0.308571
0.596004 -0.198918 -0.079384
0.875823 -0.006243 -0.096723
0.550908 -0.199058 -0.167558
0.881743 -0.031880 -0.077811
-0.057485 -0.115205 -0.308571
-0.717728 -0.200257 -0.161855
-0.149355 0.046388 0.309509
-0.939119 -0.062878 -0.150440
-0.815437 0.268093 -0.308571
0.873944 -0.198918 0.072350
-0.614387 -0.198918 0.111967
-0.460234 -0.046689 -0.308571
0.109079 0.395212 -0.264916
-0.877568 0.078391 0.309509
-0.274631 0.205825 0.309509
-0.404657 -0.198918 0.130543
0.553385 0.026371 0.309509
-0.550381 -0.327391 0.309206
-0.311512 0.080269 0.309509
0.226043 0.240071 0.309509
-0.636035 -0.208848 0.174791
0.443763 0.282938 -0.308571
-0.083212 0.399279 -0.158023
-0.008281 0.399279 -0.010842
0.354748 0.399279 -0.202832
0.892499 -0.165082 -0.223848
-0.525356 -0.198918 -0.150727
-0.513798 0.188695 0.309509
-0.741677 -0.198918 0.021079
-0.365440 -0.198918 -0.174417
0.366457 0.399279 0.021722
-0.066553 -0.055456 -0.308571
0.365068 -0.030797 -0.308571
0.859571 0.064137 0.055944
-0.692226 0.252028 -0.308571
0.364027 -0.198918 -0.260173
0.445981 -0.198918 -0.069499
0.728998 -0.321969 0.309509
0.540277 0.177666 0.098146
-0.624159 -0.006084 -0.309086
0.108490 -0.154369 -0.308571
0.891926 0.024533 -0.245737
-0.673319 0.274067 -0.308571
0.744247 -0.282083 -0.178814
-0.278021 -0.198918 0.051405
0.254760 0.036226 -0.308571
0.356459 -0.159197 -0.308571
0.446461 0.385274 0.169588
0.366935 0.147147 -0.308571
0.694365 -0.198918 0.118782
0.680156 0.094743 0.279126
0.621291 -0.152911 0.309507
0.661574 0.147898 -0.207759
0.878835 -0.019286 0.093714
-0.939119 0.097783 0.148389
-0.043263 0.399279 -0.038482
-0.305077 -0.198918 0.059688
-0.609004 0.145214 0.309509
0.272774 0.230110 -0.308571
0.298519 0.280430 0.309509
-0.615961 0.393247 0.276521
-0.485319 0.399279 0.214809
0.342296 -0.198918 0.183557
-0.158829 0.388605 0.300513
0.059680 0.178239 -0.308571
0.015788 0.249967 -0.308571
-0.718513 0.399279 0.005336
-0.437861 0.104920 -0.308571
-0.598378 -0.049736 0.308888
0.129510 0.379283 -0.308347
-0.724257 0.017040 0.309509
-0.615342 -0.234881 0.179709
-0.712562 -0.189450 0.309166
-0.149791 -0.166251 -0.308571
-0.174026 -0.198918 0.085022
-0.791241 -0.198119 0.301437
-0.863667 -0.198918 0.076127
-0.352896 0.399279 -0.035036
0.180415 0.387315 -0.304304
-0.801958 0.399279 -0.125934
0.907697 -0.198914 0.144342
0.499486 -0.198918 0.246471
0.526152 -0.198918 -0.150186
-0.499976 0.399279 0.015223
0.863674 0.046175 0.119583
-0.030232 0.399279 0.163771
0.191118 0.166142 0.309509
0.456348 0.213240 -0.308571
-0.686783 0.399279 0.075218
0.199084 -0.198918 0.046051
-0.543951 -0.052953 0.307781
-0.179216 -0.045156 -0.308571
-0.706692 -0.219657 0.309507
-0.288784 0.399279 -0.217545
0.317610 -0.169732 -0.308571
-0.069530 0.188599 0.309509
0.709907 -0.338655 -0.186233
-0.123937 -0.055280 0.309509
-0.029554 0.056742 0.309509
-0.500419 -0.123605 -0.308571
0.701429 -0.295085 -0.179011
0.415140 0.399279 -0.042570
0.559411 0.170416 0.204997
0.589998 -0.091752 -0.308051
0.917458 -0.186797 -0.008835
-0.798091 -0.198918 -0.167583
-0.546175 0.221980 0.309509
0.893461 -0.082619 -0.109661
0.041845 -0.198918 -0.062171
0.387405 0.399279 0.092167
0.181957 0.373401 0.309509
0.151778 0.399279 0.075009
0.412107 0.067225 0.309509
-0.457717 -0.198918 -0.092705
-0.527477 0.358403 -0.308571
0.560197 -0.057871 0.309509
0.886987 -0.054584 -0.092692
0.375003 0.203520 -0.308571
0.250218 -0.198918 0.220610
-0.358682 0.240207 0.309509
0.508192 0.241497 -0.226582
-0.664198 0.399279 -0.153280
0.846743 -0.198918 0.075157
-0.321369 0.399279 0.053965
-0.738918 0.044671 -0.308571
-0.946145 -0.049491 0.233786
-0.931696 0.186989 0.173795
-0.687194 -0.198424 0.309509
-0.366191 0.010935 0.309509
0.491482 -0.115056 0.309509
-0.939119 -0.017397 -0.174902
