0.445741 -0.277294 -0.333304
0.471679 0.048885 -0.165547
-0.355369 0.391346 -0.220451
-0.164836 -0.054750 -0.383818
-0.117953 -0.082292 0.210616
-0.043391 0.065559 0.085497
0.048748 0.067378 -0.280188
0.243491 -0.049706 -0.383818
0.448953 0.018454 -0.384414
0.494623 -0.783375 0.336924
-0.002562 0.066596 -0.290245
-0.259232 0.453276 0.308761
-0.121231 -0.082292 0.233519
-0.257735 0.391483 0.254262
-0.092316 -0.082292 -0.264089
-0.283617 0.050457 0.023021
0.072543 0.067580 -0.134621
-0.386273 0.467503 0.058182
-0.070656 -0.082292 0.268084
-0.277541 0.445207 0.181260
-0.101872 -0.355526 -0.361419
0.185174 0.066306 -0.227960
0.331266 0.060000 -0.171499
-0.294609 -0.160827 0.271532
0.497242 -0.071360 -0.048331
-0.385925 0.406063 -0.045588
-0.264439 0.010335 -0.385124
-0.029191 0.065920 -0.052560
0.491959 -0.038684 0.383154
-0.227422 0.051846 -0.338083
0.504794 -0.050732 -0.008203
0.490763 -0.676561 -0.387534
-0.319565 0.616624 -0.387556
0.157236 -0.082292 -0.159106
0.493437 -0.122974 0.218815
0.357938 -0.031305 -0.383818
0.034041 0.067254 -0.025074
0.402254 0.055003 0.318605
0.090202 -0.082292 -0.263910
-0.335430 -0.044418 -0.226523
-0.387031 0.617996 0.047626
-0.274957 0.474664 -0.192712
0.472438 -0.591421 0.328611
-0.339011 0.499656 -0.313752
-0.129923 0.061787 -0.139265
-0.322230 -0.126496 0.259184
-0.343079 0.007391 -0.179570
0.439827 -0.750397 0.331571
-0.202312 0.057195 0.020250
-0.271553 0.408358 -0.210520
-0.325141 -0.592916 -0.334285
0.437521 -0.341507 -0.358178
-0.273013 0.679034 -0.207266
0.075140 -0.082292 -0.073776
0.461381 -0.441862 -0.387559
0.245373 0.064363 -0.194806
0.025099 0.067177 -0.281279
-0.266677 0.465237 0.366280
-0.384639 0.690586 0.049182
0.311007 0.061201 -0.092328
0.122532 -0.082292 0.230989
-0.266677 -0.476394 -0.373682
-0.122132 -0.082292 -0.182771
-0.276290 0.435795 0.383224
0.167066 0.015434 -0.374219
-0.345055 0.718349 0.003327
0.428407 -0.377692 -0.343524
0.459483 -0.727446 -0.332942
-0.322230 -0.106311 0.182628
-0.182650 -0.082292 -0.017354
-0.114858 0.020915 -0.344362
-0.266677 0.213796 -0.347913
-0.324956 0.641273 -0.386219
-0.301475 -0.283376 -0.387559
-0.303896 -0.437504 -0.387559
-0.203264 -0.082292 0.277644
-0.283819 -0.698108 -0.332942
-0.311064 0.717093 0.312575
0.492687 -0.783453 -0.349774
0.495458 -0.075889 0.030048
-0.274274 -0.095659 -0.014341
-0.258192 0.587985 0.301298
-0.347979 0.510211 -0.252829
-0.275091 -0.136493 -0.309478
0.434782 -0.403531 -0.340034
-0.330644 0.032158 0.356780
-0.023015 0.066067 0.327199
0.446300 -0.097576 -0.201106
-0.115453 0.062597 -0.245799
-0.266695 -0.535617 0.376040
-0.275091 -0.140374 0.051994
0.488457 -0.486209 0.328611
0.395399 -0.082292 0.130876
-0.297913 0.567453 -0.068562
-0.266677 -0.141839 -0.360852
0.019155 0.067113 -0.208541
0.265640 -0.082292 0.262336
-0.383056 0.474418 -0.097647
-0.211411 0.056501 -0.106058
-0.329464 0.041225 0.211690
-0.339008 0.626868 0.299118
-0.070896 0.042866 0.334611
-0.317499 0.714672 -0.074552
-0.267699 0.364700 0.312186
-0.275091 -0.123211 -0.154763
-0.322284 -0.392999 -0.387553
-0.164294 0.016980 0.347970
-0.286822 0.105998 0.383229
-0.324221 0.357276 -0.189419
-0.303685 -0.403294 0.383229
-0.330644 0.156531 0.348259
-0.340749 -0.019294 -0.046687
-0.342044 0.020157 -0.127612
0.483330 -0.656304 0.328611
0.477291 -0.775957 -0.387469
-0.064320 0.064779 -0.102715
-0.284260 0.209979 -0.332942
-0.265932 0.520374 -0.350026
-0.377081 0.692084 -0.120237
-0.322230 -0.133097 0.092056
0.446300 -0.123517 -0.015983
-0.342180 -0.007458 0.068115
0.090075 0.067651 0.067430
0.478589 -0.057144 -0.387559
0.513135 -0.010198 0.014954
0.361213 0.058134 0.088178
-0.114333 0.062651 -0.208609
-0.330240 -0.066647 0.330351
-0.234303 0.006385 -0.383686
0.499005 -0.684462 -0.335452
-0.266677 -0.668342 -0.373693
0.320414 -0.369462 -0.374355
0.066130 -0.405266 -0.373887
0.074372 0.015654 0.369098
-0.255967 0.624662 0.256897
0.440256 -0.585672 -0.335260
0.335217 -0.082292 0.042626
-0.286275 0.165485 -0.332942
-0.342426 0.357433 0.108717
-0.082687 -0.082292 0.001820
-0.323051 0.322675 -0.387552
-0.328856 -0.459266 -0.383197
-0.288364 0.370840 0.151162
-0.180479 0.058784 0.231199
-0.353185 0.435823 0.228999
-0.017837 0.066208 0.046761
0.207668 0.065736 0.288826
0.115148 -0.082292 -0.296677
-0.205623 -0.054453 0.379489
-0.331896 0.533399 -0.348208
-0.184828 0.053112 -0.337790
0.368953 -0.082292 0.183697
-0.158900 -0.082292 0.048675
0.414306 -0.082267 0.332538
-0.270117 -0.347343 0.331360
0.490341 -0.427462 0.328620
-0.178665 0.058893 0.007121
0.109448 0.067489 -0.257780
-0.388476 0.459481 0.006615
0.444870 0.051386 0.201423
-0.382892 0.676582 0.074905
0.113682 0.067453 -0.166193
0.446300 -0.137889 -0.061650
-0.074740 0.064338 0.008993
0.276902 0.063029 0.166175
0.037019 -0.082292 -0.131526
-0.038030 -0.082292 0.048591
-0.167811 0.024125 -0.341494
-0.342072 0.397628 0.258383
-0.026924 0.065978 -0.314542
0.219454 0.065416 0.200843
-0.140642 0.061151 0.138235
0.296083 0.062086 -0.032628
0.248064 -0.408870 0.347655
0.369368 -0.082292 -0.305116
0.340595 -0.082292 -0.204261
0.168141 0.066739 -0.064838
-0.261835 -0.082919 -0.221697
0.437884 -0.445415 0.347039
0.291673 -0.356599 0.360895
-0.352121 0.717581 0.073235
0.325185 -0.082292 0.265880
-0.207115 0.056819 -0.331614
0.447394 -0.159093 0.201506
-0.305912 -0.160827 0.054042
-0.373630 0.560036 0.153192
-0.330595 0.088548 -0.339327
-0.009910 0.066409 0.271483
0.012732 -0.082292 0.255909
0.229868 -0.356263 0.359702
-0.232321 0.054906 0.046437
-0.268371 0.064902 0.378907
-0.257192 0.656887 0.263048
-0.075661 0.060725 -0.336490
0.116090 -0.082292 0.022036
-0.260022 0.636531 -0.320345
0.203758 -0.390530 -0.346031
-0.301006 0.709461 0.107311
0.268254 0.063395 0.186243
-0.012732 -0.082292 -0.024650
-0.122321 0.062238 -0.056006
-0.342405 -0.005023 0.279429
-0.266677 0.284129 -0.356085
-0.384605 0.435817 0.068746
-0.379904 0.646292 0.107874
0.141270 0.067219 -0.305465
0.280524 0.062875 0.093496
-0.236798 0.016911 0.350534
0.309529 0.017004 -0.362817
-0.245775 -0.082292 0.121681
-0.266677 0.340784 0.356899
-0.250386 0.053517 -0.033512
-0.325502 0.322110 -0.334538
0.144435 0.067192 -0.071646
-0.366305 0.502781 0.186243
0.467297 -0.160827 -0.001360
0.501851 -0.086240 -0.368300
0.337008 -0.082292 -0.181910
0.291896 0.062325 -0.165995
0.177396 -0.082292 -0.052209
0.101834 -0.063640 -0.383818
0.274965 -0.082292 0.176970
0.214872 -0.082292 -0.198119
-0.301605 -0.366999 -0.332942
0.475842 0.048496 -0.263181
-0.076994 -0.082292 0.246729
0.437900 -0.636290 -0.343270
0.219794 -0.082292 0.160680
-0.314179 -0.723098 0.328611
0.501423 -0.060814 -0.233837
0.446300 -0.150328 0.102161
0.485353 -0.763771 0.383229
-0.339092 -0.028855 -0.098894
0.501841 -0.286311 -0.344375
-0.310893 -0.659182 -0.387559
0.094657 0.067614 -0.064756
-0.266677 -0.685049 -0.347703
-0.266677 -0.602046 -0.353933
0.475018 -0.747350 -0.332942
0.490680 -0.160007 0.019767
0.434760 0.052329 0.224041
0.438279 -0.084831 0.071857
-0.300253 0.705228 -0.090078
-0.342431 0.018379 -0.084521
-0.342728 -0.000508 -0.236787
-0.056603 -0.082292 -0.118501
-0.266677 0.581082 0.354679
0.139632 0.067233 0.028805
0.468062 -0.160827 0.027467
-0.374093 0.365239 -0.099403
0.197974 0.065982 0.104096
-0.317217 -0.588789 0.383228
0.461203 0.049862 0.050159
-0.221137 0.038486 0.334611
-0.311119 0.358611 -0.168417
0.198552 -0.082292 -0.177241
-0.288684 0.170720 0.383229
0.282653 -0.031596 0.379489
-0.283603 -0.275220 0.383229
-0.319148 -0.196997 -0.387556
0.384658 -0.082292 0.108646
-0.304310 0.384285 -0.004587
0.448763 -0.159912 0.127282
-0.163745 -0.029039 -0.383818
0.069007 0.067550 -0.156166
-0.266677 -0.605712 0.362235
0.514108 0.014967 0.310002
-0.291843 -0.591087 -0.387559
0.501847 -0.558828 0.371186
-0.116950 0.062524 0.018196
0.382538 -0.050130 0.379489
-0.299848 -0.019674 0.383229
-0.291630 -0.162105 0.383229
0.491719 -0.740164 0.383164
0.337774 -0.359833 0.346338
0.052804 -0.082292 -0.190745
-0.255891 0.575773 0.246931
0.369554 0.057498 0.064300
-0.322230 -0.113192 -0.181072
0.032955 -0.082292 0.240791
-0.230045 0.055079 -0.090018
0.467546 -0.160827 -0.048991
-0.237295 -0.017105 -0.383818
-0.182816 0.015986 0.367146
-0.161641 -0.082292 0.236946
-0.254796 -0.082578 0.316889
-0.302163 0.442082 -0.012917
0.219175 -0.082286 -0.332990
-0.061590 -0.396905 -0.374470
0.450481 -0.726119 -0.387559
0.102578 0.067547 0.088608
-0.049264 -0.357673 -0.367448
0.432221 -0.082889 -0.265149
0.012859 -0.363109 0.368059
-0.276864 0.590643 -0.185140
0.446941 -0.555625 -0.387414
0.377144 0.056919 -0.005144
0.435795 -0.090707 0.338179
-0.330630 0.080413 0.374542
0.502864 -0.056651 0.308557
-0.269962 0.649432 -0.213542
-0.086770 -0.021137 -0.383818
0.044988 0.067347 -0.048279
-0.322230 -0.110350 -0.069463
0.445971 -0.242086 -0.387292
-0.314348 -0.153727 0.383229
0.179169 -0.082292 -0.099878
-0.314080 0.718169 -0.228601
0.380521 -0.082292 -0.072322
0.301866 0.061743 -0.281035
0.352651 -0.355664 -0.358162
0.501851 -0.038581 -0.368477
-0.315740 0.718240 -0.195552
-0.301835 0.385177 -0.058030
-0.266677 -0.317519 -0.356293
-0.322333 -0.086292 -0.260366
-0.136590 -0.082268 -0.340710
-0.266689 -0.557627 -0.378405
-0.322261 -0.087937 -0.179819
0.496021 -0.477120 -0.387315
-0.166390 -0.082292 -0.187919
-0.316705 -0.783503 0.357244
0.454520 -0.481424 0.383229
-0.045947 -0.356381 0.360121
-0.282637 0.567554 -0.162140
0.255634 0.063928 -0.017623
-0.320187 -0.158553 0.086245
0.489207 0.046996 -0.025811
-0.059803 -0.082292 0.301918
0.446043 -0.713297 0.382971
-0.289745 0.357787 0.262955
-0.319359 0.159004 0.328615
-0.260041 0.477345 -0.331704
-0.292785 0.291665 -0.332942
0.493642 -0.083975 -0.211910
0.333534 -0.082292 -0.011566
-0.301069 0.571329 0.009457
-0.208758 -0.383153 -0.346031
-0.186864 -0.082292 -0.039143
0.090009 0.027091 -0.340339
0.041886 0.067320 0.209016
0.291337 -0.082292 0.242335
-0.173814 -0.082292 0.214429
-0.055836 0.065138 0.284335
0.497266 -0.204709 0.382821
0.425676 -0.082292 0.306408
-0.296993 0.303395 0.328611
0.431270 -0.082779 -0.208149
0.501834 -0.339670 0.376104
-0.322661 -0.722833 0.383222
-0.322064 0.048882 0.383222
-0.342839 0.001122 -0.019548
-0.014621 -0.082292 -0.147383
-0.317607 0.217323 -0.387558
0.184018 -0.356537 -0.355809
-0.320233 -0.158398 -0.073775
0.477847 -0.262784 0.328611
0.301702 -0.082292 0.261773
-0.369099 0.714673 -0.007344
0.229157 0.065049 0.107765
0.077516 0.067623 0.212948
0.230343 -0.082292 -0.047269
0.440965 -0.583408 0.329866
-0.141413 -0.082292 0.131903
0.390439 0.055904 0.056089
-0.158498 -0.053763 0.379489
-0.274528 -0.200891 -0.332948
0.338492 -0.001556 0.379489
-0.266879 -0.304362 -0.338371
0.263398 -0.041737 0.379489
-0.255906 0.483325 0.265204
-0.372267 0.384101 0.144841
-0.031310 -0.082292 0.257206
0.008738 -0.362052 -0.348515
0.439409 -0.724932 0.332198
-0.192215 -0.082292 0.034810
0.212836 0.065604 -0.160489
-0.267013 0.183418 0.377562
0.235633 0.023098 0.337842
-0.284613 0.519957 0.148187
0.121078 -0.082292 -0.192138
0.429809 -0.085553 -0.349976
0.493437 -0.127081 -0.148726
0.498405 0.042867 -0.255037
-0.299182 0.675841 -0.080916
0.496712 -0.072591 0.004747
0.005655 -0.082292 0.159339
-0.302854 -0.160827 -0.096925
-0.388350 0.602351 0.019397
0.102424 -0.082292 0.154852
-0.278223 -0.327183 -0.387556
-0.330626 0.064680 -0.380504
0.308229 0.061366 -0.316672
0.463562 -0.570712 0.328611
0.264531 -0.082292 -0.354419
0.250535 -0.082292 -0.260492
0.379019 0.007113 -0.383661
0.184005 0.066336 -0.202966
0.032694 0.042290 -0.338942
0.302735 0.027621 -0.340132
-0.142551 0.061038 0.095093
0.501851 -0.393955 0.345681
0.389309 0.017133 -0.360575
-0.268757 0.603908 -0.213810
-0.313649 0.047621 -0.106706
0.501851 -0.764247 -0.354317
0.171500 0.066654 0.041588
-0.242924 -0.398789 -0.374451
-0.124711 -0.356783 -0.365878
0.157980 0.066997 -0.089931
-0.342227 0.574763 0.269699
-0.098413 0.063337 0.002754
-0.315804 0.517000 -0.387559
0.446300 -0.141672 0.145238
0.070447 0.067563 0.119381
0.011472 0.066952 0.130948
0.273352 -0.405579 -0.373562
0.437884 -0.225440 0.357307
-0.330644 -0.353716 0.354224
0.322644 -0.401747 -0.346137
-0.341013 0.024252 -0.203391
0.395007 -0.010000 -0.383818
-0.276294 0.386150 0.383224
0.101758 -0.374466 0.341729
0.501851 -0.368547 0.354279
0.251543 -0.371785 -0.374395
-0.094912 -0.082292 -0.302000
-0.007841 -0.082292 -0.220264
0.501851 -0.589084 0.345320
-0.329640 -0.289866 -0.382589
-0.327719 -0.612382 0.379747
0.448673 -0.661177 -0.332942
-0.330609 0.171109 -0.341093
-0.351353 0.363822 0.196590
-0.382773 0.412248 -0.085592
-0.257697 0.562140 0.297272
-0.266677 0.225406 0.359346
-0.341666 -0.012559 -0.256743
0.437884 -0.197037 0.348838
-0.294404 0.049451 0.304068
-0.266688 -0.557242 0.373430
-0.236605 0.054579 0.073521
-0.098806 -0.082292 0.024213
-0.273109 -0.325398 0.329326
0.016135 0.067054 -0.151628
-0.000085 0.066659 -0.063447
0.014109 0.067015 0.256335
0.352582 0.034048 -0.338964
-0.262916 -0.349482 0.354454
0.044197 -0.082292 -0.362302
-0.266677 0.431682 0.360026
-0.372063 0.439673 -0.159064
0.493437 -0.114823 0.035079
-0.104899 0.063062 -0.078577
0.437884 -0.146604 -0.358770
-0.322230 -0.135370 0.014398
0.489419 0.046967 0.225343
-0.256552 0.494431 0.244702
-0.038318 0.065688 -0.080818
-0.330644 -0.458465 0.354811
0.437884 -0.120164 -0.358887
0.316299 -0.082292 -0.191646
0.446300 -0.114171 -0.306905
0.446300 -0.112917 -0.175521
0.133657 -0.082292 -0.230118
-0.266677 0.292358 0.359954
-0.330644 0.554953 -0.359557
-0.316875 -0.484958 0.328612
-0.005026 -0.082292 0.101435
-0.092388 0.063592 -0.248809
0.394762 -0.082292 -0.278538
-0.196419 0.057645 -0.205839
-0.330644 0.563785 0.353355
-0.384520 0.549711 0.084703
0.437884 -0.274833 0.344194
0.265941 0.045636 -0.338942
-0.057190 -0.008266 0.379489
-0.067267 -0.082292 0.327047
0.498860 0.042495 0.199415
-0.241157 -0.082292 -0.232852
0.493437 -0.110054 0.253936
-0.299478 0.488464 -0.053421
0.413136 0.054173 0.180716
-0.266677 0.385833 0.354761
0.362924 0.014304 0.372881
0.000181 -0.082292 -0.284728
-0.117768 0.062485 0.243216
0.019468 -0.082292 0.218458
-0.234360 -0.082292 -0.012427
-0.110511 0.062823 0.277956
-0.322230 -0.141505 -0.034242
0.445117 -0.157540 0.320369
0.226036 -0.380392 -0.346031
0.300838 -0.082292 -0.150407
-0.330644 0.524180 0.363906
0.496826 -0.072327 -0.316163
-0.001019 0.065698 0.330725
0.303508 -0.009924 -0.383818
0.018836 0.067106 -0.090485
-0.300066 0.465111 0.046806
0.447051 -0.158571 -0.039966
0.412346 0.054233 0.107921
-0.337968 -0.034266 0.172872
0.309656 -0.030185 0.379489
0.090409 0.067650 -0.183443
0.087287 -0.082292 -0.299062
-0.271971 -0.774364 -0.385920
-0.084807 -0.082292 0.101377
-0.223680 0.014751 0.371698
-0.329264 0.550714 -0.382881
-0.238375 -0.058933 -0.383818
-0.076538 0.064262 0.155032
-0.329742 -0.062054 -0.257223
0.006413 -0.013887 0.379489
0.397690 -0.356076 -0.363369
-0.354604 0.574437 0.228446
-0.262197 0.454079 -0.234166
0.030797 -0.405638 0.369131
-0.328133 -0.145850 0.328589
-0.218820 0.055936 -0.257314
0.257614 -0.007369 -0.383818
-0.369058 0.361570 -0.060946
-0.300271 0.570714 0.035245
0.163355 -0.023910 0.379489
-0.266677 -0.148195 0.344814
-0.375969 0.397324 0.127055
-0.330644 -0.289650 0.356943
-0.278958 0.359974 0.286029
0.446300 -0.113490 0.305758
0.511925 -0.019489 -0.183444
0.497770 -0.070114 -0.254546
0.163117 -0.379469 -0.374470
-0.031372 -0.082292 -0.013596
-0.322245 -0.763232 -0.387553
0.498373 -0.676358 0.381285
0.260714 -0.082292 0.109427
0.491015 -0.575568 0.328655
-0.342399 -0.005093 0.095158
-0.333777 0.450635 -0.341568
0.501851 -0.345348 0.354671
-0.033208 -0.361108 -0.349430
0.433107 0.052483 0.130967
-0.143746 -0.077505 -0.382701
0.444786 -0.668188 0.382812
-0.042527 -0.082292 0.097285
0.042554 0.028660 0.335397
0.262705 -0.408600 0.364043
0.501851 -0.244589 0.363884
0.472864 0.030527 -0.341345
-0.148370 -0.082292 0.207611
0.402040 -0.082292 0.095204
-0.270276 0.051702 0.103638
0.455439 -0.115432 0.383229
-0.128739 0.061857 0.263334
-0.257656 0.608175 -0.292373
-0.330644 0.080667 -0.361872
-0.327313 0.639729 0.380062
-0.051472 -0.033522 0.379489
-0.046142 -0.082292 -0.074149
0.501851 -0.253004 -0.359271
0.481679 -0.188725 0.328611
-0.295761 0.357326 -0.315958
-0.333977 -0.049467 -0.023237
0.391564 0.055819 0.157362
-0.340040 0.578484 0.295736
-0.274723 -0.743600 0.328617
-0.302642 0.637621 0.383229
-0.259677 -0.366237 -0.344217
0.496247 -0.206559 0.328925
-0.154288 0.060342 0.072863
0.493437 -0.147232 -0.316288
0.493437 -0.108949 0.080835
0.489259 -0.734812 0.328611
0.115287 0.015713 0.368751
0.064750 -0.082292 -0.013534
0.454886 -0.294217 0.383229
-0.189867 0.058144 -0.050708
0.222206 0.065328 0.077932
-0.322230 -0.088782 -0.237859
0.339819 -0.082292 -0.036068
0.331259 0.017002 -0.352245
0.437896 -0.429709 -0.379111
-0.378403 0.443361 0.120361
0.155082 0.067070 0.211207
0.041509 0.067317 -0.155681
-0.259917 0.655047 0.239329
0.493590 -0.483932 0.383087
-0.339350 0.718301 0.092414
-0.154321 -0.082292 0.088373
-0.331357 -0.057526 0.291617
0.499404 -0.066109 -0.119349
-0.229207 0.055143 -0.236336
-0.026614 0.065986 0.214468
0.493437 -0.110322 0.057691
0.274275 -0.082292 -0.127423
-0.288604 -0.759473 -0.387559
0.476982 -0.727297 -0.387559
-0.300179 -0.716499 0.383229
0.214673 0.012968 -0.380744
-0.266698 -0.485307 -0.342938
-0.266677 -0.635211 0.360879
-0.385634 0.488835 0.069142
-0.330596 0.276721 -0.339365
0.461864 -0.077227 -0.387559
-0.205134 -0.357060 -0.354398
-0.092450 -0.385428 0.370140
0.455635 -0.273569 0.328611
-0.130523 -0.082292 0.159287
0.410793 0.038233 0.334611
-0.274341 0.470146 0.190942
-0.257709 0.683255 -0.259134
0.064305 0.067511 -0.108790
0.173904 -0.003826 0.379489
0.244417 0.064403 -0.301253
0.008988 -0.394100 0.370140
-0.266677 -0.680911 0.356455
-0.320778 0.262455 0.383224
0.257086 -0.082292 -0.168102
0.506602 0.034807 0.017538
-0.257734 -0.084088 -0.357369
-0.101987 0.063185 -0.138518
0.228021 -0.026370 -0.383818
0.082974 -0.082292 0.172061
-0.062832 -0.079815 -0.381811
0.469888 -0.160827 -0.148994
-0.261037 0.503669 -0.336229
0.136184 -0.082292 -0.208473
0.085668 -0.378153 0.370140
-0.332485 0.038468 -0.011122
0.439491 -0.587451 0.379414
-0.301052 0.420643 0.048172
0.437884 -0.461378 -0.360790
-0.346191 0.559369 0.253863
-0.266677 0.434674 -0.363042
-0.337358 0.548039 0.328812
-0.330631 0.161205 0.374142
0.204567 -0.357798 -0.367577
-0.313721 0.363646 -0.001220
-0.088454 -0.082292 -0.214216
-0.340095 0.439285 0.282095
-0.362950 0.509659 -0.203143
-0.262659 -0.083221 0.212866
-0.293922 0.390785 0.115913
-0.011070 0.066380 0.190630
-0.330644 -0.308731 0.344604
0.466595 -0.783475 -0.341991
0.450057 -0.160098 -0.218032
-0.288532 -0.441350 -0.332942
0.108738 -0.082292 -0.324275
0.501851 -0.565418 -0.362992
0.410747 0.054355 -0.050651
-0.257416 0.625164 -0.248738
-0.116069 0.062567 -0.310926
0.477970 -0.478483 -0.332942
0.126288 0.067346 -0.146207
-0.348240 0.627618 -0.249051
-0.331289 0.039648 -0.088122
0.493437 -0.116463 -0.264511
-0.289856 0.658771 -0.136839
0.466238 -0.782882 0.333041
0.310263 -0.082292 -0.015567
0.084293 -0.082292 0.066295
-0.310690 0.047920 0.278397
-0.293221 0.699707 -0.377400
-0.159612 0.060026 0.019767
-0.322230 -0.125548 0.193021
0.514346 0.009424 0.221255
-0.256381 -0.082292 -0.105290
-0.378108 0.515611 -0.134198
-0.330322 -0.247637 -0.338058
0.498485 -0.341960 0.330509
-0.190486 0.058097 -0.288686
0.512522 0.023422 0.255913
-0.303306 0.568646 0.383229
0.511845 -0.019980 0.312165
-0.274294 0.699710 -0.353551
0.053171 -0.082292 -0.076019
-0.338222 0.373154 0.274149
0.232796 -0.056042 0.379489
-0.123781 -0.082292 -0.043952
0.439788 -0.343138 -0.335957
0.489709 -0.160471 -0.123242
-0.228173 -0.404284 0.341983
-0.266694 -0.222224 0.339194
-0.292464 0.392894 -0.128214
-0.266677 -0.164234 0.365969
-0.367825 0.496321 -0.184004
0.301180 -0.034155 -0.383818
-0.093829 0.026361 0.336292
0.357552 -0.371426 -0.374389
-0.324079 0.334782 0.329210
-0.301125 0.544358 0.383229
-0.223407 0.055586 0.185293
0.368909 -0.006396 0.379489
0.507375 -0.041635 0.255067
0.180146 -0.082279 -0.343084
-0.275091 -0.111714 0.231782
-0.302983 0.662336 -0.013560
0.043502 0.067334 0.319112
-0.174000 -0.082292 0.257488
-0.266677 0.386319 -0.363535
0.494150 -0.217675 -0.387393
-0.297576 0.403388 0.088344
-0.314285 -0.160795 -0.025963
-0.301292 0.598814 -0.017731
0.323405 0.060466 -0.274364
0.501932 0.004203 -0.358046
0.119567 0.067403 0.040590
-0.097641 -0.082292 0.235500
0.500337 -0.530483 -0.337020
0.454395 -0.160723 -0.068933
0.200336 0.065922 0.154286
-0.266677 -0.126781 0.353883
0.440906 0.051756 -0.171080
-0.341537 0.553575 0.279054
-0.337816 -0.034913 0.131305
-0.373505 0.498408 -0.157407
-0.112558 -0.374548 0.370113
-0.303946 0.683950 -0.006880
-0.358000 0.564619 -0.221215
0.437884 -0.118971 0.369110
-0.135942 -0.053992 0.379489
-0.342431 -0.004747 0.015448
-0.382786 0.387398 0.071000
-0.344657 0.442361 -0.259151
0.439163 -0.098517 0.379069
-0.322230 -0.100303 0.305145
-0.161800 -0.022417 0.379489
-0.285117 0.050317 -0.066345
0.491964 -0.158904 -0.241998
-0.338454 0.718240 -0.079618
-0.326169 -0.782679 -0.377876
0.244508 0.064399 -0.147280
0.411861 0.019183 -0.346631
-0.189428 -0.052457 -0.383818
0.155605 -0.082292 -0.228395
-0.102539 -0.082267 0.336335
-0.297608 0.598311 0.071745
0.511334 -0.023131 -0.063838
0.058884 -0.082292 0.273724
-0.192175 -0.082292 0.074534
-0.288873 -0.783458 0.335473
0.153742 -0.082292 0.020517
-0.076713 -0.082292 0.188040
0.246102 0.009609 0.379184
0.389582 -0.082292 -0.213713
-0.308971 0.361393 -0.124689
-0.035686 -0.071762 -0.383816
-0.013665 0.066314 -0.114710
-0.373900 0.510137 0.151770
-0.021926 0.066104 -0.195464
0.257354 -0.377902 -0.346031
-0.321490 0.146361 -0.332947
-0.270254 -0.235549 -0.384643
0.269421 -0.082292 0.239679
0.245397 0.016855 -0.353832
-0.371307 0.362002 0.045356
-0.294369 0.715281 -0.203811
-0.007414 -0.082292 -0.050826
0.047225 0.049915 0.334611
-0.272066 0.350551 0.328430
0.394561 -0.082292 -0.120466
-0.146142 -0.082292 -0.131464
0.002728 0.066730 -0.248542
-0.293801 -0.186185 -0.332942
-0.111650 -0.082292 0.100401
-0.277157 0.360400 -0.255859
-0.266677 0.344540 -0.373120
0.332668 -0.033601 -0.383818
-0.047117 -0.082292 -0.288754
-0.117009 -0.010809 0.379489
-0.370781 0.516075 -0.171004
-0.296323 0.483466 -0.087274
0.439384 -0.719821 -0.336567
0.446300 -0.101727 -0.082172
0.391244 -0.082292 0.159030
-0.135291 0.061469 -0.001478
-0.281011 0.675510 0.173766
0.494449 -0.406174 0.328832
-0.340366 0.443287 -0.284212
-0.296934 -0.216079 -0.387559
-0.333254 0.357598 -0.169662
0.115535 -0.403116 -0.346168
-0.352350 0.483667 -0.239029
0.436476 -0.084090 0.172779
-0.339244 0.601398 0.302206
-0.335904 -0.042625 -0.047882
0.493437 -0.134758 -0.179645
-0.022502 -0.355307 0.356312
-0.337339 0.032237 0.108586
0.276512 0.063045 -0.123130
0.158611 -0.056551 -0.383818
-0.170921 0.059356 -0.254784
0.190988 -0.082292 -0.132464
-0.165308 -0.408340 -0.368821
0.316474 -0.376630 -0.346031
0.501851 -0.141466 0.364927
-0.297349 -0.625738 -0.332942
0.190424 -0.368808 0.369931
-0.301296 0.681502 -0.060029
-0.349027 0.357369 -0.036467
-0.330644 0.131714 -0.346049
0.329035 0.060132 -0.117432
-0.260502 -0.085389 0.344799
-0.340735 0.601830 -0.287470
-0.294008 0.466192 -0.105046
-0.293218 -0.423109 0.328611
0.493437 -0.091078 -0.105367
0.313625 0.061046 0.204922
-0.330790 0.424383 0.347615
0.431797 -0.082840 -0.182984
0.209000 -0.082292 0.245892
-0.377669 0.464107 0.128360
-0.337878 0.511821 0.324990
-0.266677 0.207975 0.341652
-0.260037 0.404306 -0.244988
-0.157431 0.015273 0.370315
-0.316121 -0.534455 0.383229
-0.301138 0.391953 0.058378
-0.137317 0.061348 -0.080037
0.455090 -0.323075 -0.332942
0.459930 0.049981 0.313590
-0.290854 -0.081611 -0.387559
-0.365827 0.703928 0.172014
0.441480 -0.783138 -0.358843
0.492143 -0.158687 0.103414
-0.301713 0.428618 -0.039261
-0.290334 0.262729 -0.387559
-0.316483 -0.358359 0.328611
-0.044848 -0.379855 -0.374470
0.459702 -0.419484 -0.387559
0.469784 0.049061 0.246941
0.514216 0.012537 -0.203953
0.066611 -0.082292 0.024066
-0.291811 0.441612 0.118727
-0.302031 0.440786 0.014130
0.063077 -0.082292 -0.228508
-0.330644 -0.304455 -0.366563
0.037412 -0.389082 -0.374470
0.201304 -0.409520 0.360980
-0.136629 -0.082292 0.049497
-0.271059 -0.745030 -0.335050
-0.306947 0.334663 -0.332942
-0.286391 -0.099441 0.383229
-0.275091 -0.122338 0.139705
-0.340841 0.717001 0.164304
0.448203 -0.038997 0.383229
-0.278443 0.699714 0.352881
0.034876 -0.082292 0.297516
-0.330644 0.400604 0.348878
0.314900 0.060970 0.308198
-0.160426 -0.082292 0.153890
0.495411 -0.076047 -0.076792
0.479921 0.048116 0.295425
-0.290942 0.049774 0.118849
-0.161781 -0.377554 -0.374470
0.434842 -0.083419 -0.306519
-0.266695 0.243383 0.376199
-0.304315 -0.760713 0.383229
0.016437 -0.082292 0.191726
-0.297645 -0.233100 -0.332942
0.189916 0.066186 -0.117831
0.346253 -0.082292 0.094780
0.419625 -0.389134 0.370140
0.501851 -0.661888 -0.359222
-0.184583 0.058519 0.310183
0.461174 0.049865 0.267378
0.091638 -0.082292 -0.089385
-0.379030 0.385611 0.103498
-0.121721 0.062273 0.182362
-0.383546 0.488130 0.091089
-0.336771 0.623715 0.327852
-0.388157 0.604002 -0.029213
-0.293121 0.465110 0.106767
-0.279944 -0.610306 -0.387558
0.166666 -0.355527 0.357092
0.479404 0.044912 0.333533
-0.330626 0.555292 0.376068
-0.089563 -0.045614 -0.383818
0.421360 -0.016110 -0.383818
0.362797 -0.082292 -0.151445
-0.369117 0.383907 -0.164040
-0.272299 -0.090874 -0.266753
0.444729 -0.091499 0.115844
0.462083 -0.609828 -0.332942
-0.373472 0.646876 0.146687
0.003301 0.066745 -0.316480
0.269782 0.016734 -0.367050
-0.239145 -0.082292 -0.070608
0.448201 0.051075 0.090095
-0.259305 0.653861 -0.302123
-0.301556 0.488723 -0.003050
-0.063961 -0.082292 -0.359403
0.300355 0.061833 0.157651
-0.322092 0.284607 0.383222
-0.181617 0.058715 0.029958
0.430150 -0.082649 -0.095059
0.325102 0.060365 -0.048328
0.478363 -0.222414 0.383229
0.420178 -0.082292 -0.122322
-0.337889 0.357495 -0.145584
-0.300546 -0.259527 0.383229
-0.114143 0.062661 -0.120352
-0.259179 0.414209 0.291966
-0.326832 0.700866 0.341026
0.156608 -0.402152 0.370081
0.501841 -0.616270 -0.344260
0.202778 0.065860 0.005082
0.501851 -0.698354 0.364620
0.501851 -0.386414 0.367327
0.412114 -0.047135 0.379489
0.120853 -0.012190 0.379489
-0.377085 0.633886 0.128854
-0.313736 0.047613 0.251748
0.229159 0.025726 -0.340871
0.506469 -0.045042 -0.135620
0.333005 0.059897 0.286143
0.021490 0.054793 0.334611
-0.266688 -0.743888 0.373521
-0.340887 0.471413 -0.284964
-0.258420 -0.393422 0.372165
0.264776 0.016122 0.366345
-0.322425 -0.084195 -0.060065
-0.158453 -0.082292 -0.349381
0.382553 0.026156 0.336372
0.285042 -0.082292 0.105519
-0.335204 -0.045273 -0.313549
0.480201 0.048089 0.070462
0.418983 -0.082022 -0.378129
0.175426 -0.374258 -0.346063
0.344590 0.059210 0.068063
-0.255771 0.587160 -0.268402
-0.297810 0.461432 -0.077107
-0.288906 0.490659 -0.133351
-0.360432 0.663427 -0.204788
-0.297680 0.650218 0.082492
0.409993 0.049462 -0.338378
0.149768 -0.082271 0.331723
-0.141349 -0.082292 -0.095314
-0.308218 0.048162 -0.018463
0.468019 -0.160827 0.177364
-0.367104 0.619674 0.179961
0.493696 -0.553429 -0.333124
-0.338098 0.030995 0.307681
0.493437 -0.088651 0.241072
0.077244 -0.082292 0.212604
-0.381470 0.437694 0.098917
-0.296811 -0.160827 0.222752
0.501851 -0.296842 0.351574
-0.193888 0.030939 -0.338984
-0.317729 0.157988 -0.387558
-0.253587 0.053258 0.162817
0.509948 -0.030649 0.070728
0.446486 -0.774474 0.328863
-0.330644 -0.117982 -0.358308
-0.339798 0.554325 0.301168
0.016948 0.067070 0.021247
-0.348853 0.463340 -0.248262
0.034817 0.017073 -0.352062
0.493437 -0.149065 0.125412
0.353892 -0.026670 0.379489
-0.319493 0.716663 0.116053
-0.294997 -0.020683 -0.387559
-0.301288 0.593570 0.010735
-0.151814 0.060489 0.041461
-0.181160 -0.082292 0.161130
-0.143563 -0.042887 -0.383818
0.493437 -0.098432 0.192394
0.334958 -0.082292 0.310578
-0.263295 0.693789 0.331018
0.501851 -0.634877 -0.357448
0.038523 -0.037885 -0.383818
-0.079919 -0.082292 0.290756
0.432225 0.048730 -0.336699
-0.265906 0.466133 -0.349510
-0.123439 -0.082292 0.186514
0.446300 -0.135245 -0.036164
0.216273 0.056710 0.334600
-0.275091 -0.128980 0.268516
-0.306879 0.048287 0.029888
-0.257229 0.616032 0.279559
0.092570 -0.020187 -0.383818
-0.099226 0.013635 0.374651
-0.316265 -0.440768 0.328611
0.177773 0.038406 0.334611
-0.322230 -0.149400 -0.096001
-0.333577 0.357644 -0.080098
-0.383553 0.394437 -0.069970
0.252166 -0.390447 0.370140
0.139421 0.067230 -0.327778
0.489527 -0.160481 -0.053188
0.142471 -0.082292 -0.011306
-0.388391 0.511483 0.033698
0.102873 0.067536 -0.330648
-0.275091 -0.138410 0.161663
-0.288624 -0.351172 -0.387559
0.285776 0.062648 -0.256692
0.460575 0.020928 0.375827
-0.130700 0.061741 0.072100
0.346913 0.024696 0.336941
0.446300 -0.134938 0.173783
0.009652 -0.029176 -0.383818
-0.318821 -0.346462 0.383226
0.439551 -0.064773 -0.386776
0.501851 -0.308061 -0.353660
-0.295064 0.497916 0.090524
-0.339235 0.497655 0.306330
-0.104958 -0.390137 -0.374470
-0.360805 0.716661 0.018900
-0.284676 0.466077 0.150971
-0.266677 0.410458 0.368344
0.273649 -0.381108 -0.374470
-0.338878 0.029334 -0.257379
-0.109211 -0.082292 -0.329718
-0.102589 -0.082292 0.179740
0.241953 -0.082292 0.149803
-0.364083 0.579860 -0.198473
0.025091 0.067177 0.148617
-0.040030 -0.409519 -0.366505
-0.017228 -0.082288 0.328158
-0.182160 -0.082292 0.283602
-0.379527 0.646964 -0.114599
0.493437 -0.104508 0.015669
0.428189 -0.082422 0.228503
-0.266677 0.635748 0.357559
-0.362706 0.408668 0.191739
0.440258 -0.467847 -0.385156
-0.004938 -0.082292 0.353260
0.497102 -0.559682 -0.387270
0.291424 -0.409521 0.359683
-0.266719 0.339974 -0.340169
0.219478 0.065415 -0.077960
0.095938 0.017107 0.356683
-0.266677 -0.727720 -0.358166
-0.209989 -0.082292 0.147306
0.235625 0.045349 0.334611
0.493437 -0.145052 0.290480
-0.280305 -0.127667 0.383228
0.128868 0.067324 0.096681
0.337179 -0.082292 0.247040
0.047992 -0.082292 -0.211843
-0.237641 -0.082292 -0.281531
-0.255686 0.600629 0.259929
0.513478 -0.006478 -0.315714
0.192234 -0.082264 0.333162
0.511583 0.025805 -0.023631
-0.310211 0.668818 0.383229
0.461871 -0.159871 -0.387559
-0.228155 -0.082292 -0.202137
-0.307907 0.365635 0.046350
-0.330644 -0.679190 0.360451
0.249628 -0.082292 -0.001350
-0.261057 0.416776 0.323284
-0.261596 0.367895 0.275190
-0.330633 0.034857 -0.377752
-0.287973 -0.783504 0.359649
0.358185 -0.082292 0.315971
-0.160660 0.059964 -0.198600
-0.251155 -0.082292 0.189884
0.397376 -0.082292 -0.029871
0.501851 -0.422541 0.358109
-0.318999 -0.483219 0.383226
0.051622 0.067403 -0.210357
0.501851 -0.046332 0.360412
-0.241946 -0.082292 -0.257252
-0.064991 -0.082292 -0.148510
0.189819 -0.082292 0.202178
-0.289787 0.598111 -0.129928
0.252040 -0.082292 -0.057427
0.493437 -0.123831 0.298490
-0.294188 0.032065 -0.387559
-0.389122 0.574348 -0.010373
0.501851 -0.359020 -0.349149
0.213766 0.065580 0.033822
0.150481 -0.082292 0.307161
-0.297818 0.652118 -0.086245
-0.050828 -0.082292 -0.310939
-0.321826 0.045810 -0.060059
0.057178 0.016958 0.351402
0.212087 0.065623 0.057933
0.170470 -0.082281 0.339184
-0.278218 0.565758 0.174882
0.493437 -0.125243 0.275040
0.434968 -0.083471 -0.233294
-0.341383 0.023203 -0.030331
-0.290781 0.358442 0.237982
0.466264 -0.641335 -0.387559
-0.234495 0.054740 -0.286511
-0.257769 0.471307 -0.295204
-0.314247 0.047561 -0.169670
-0.282284 -0.401457 0.328611
-0.288373 -0.547620 0.383229
-0.330644 -0.177316 0.363781
-0.225617 0.055417 -0.037163
-0.367318 0.709169 -0.146957
-0.263884 0.644811 -0.341537
-0.227261 -0.060684 0.379489
-0.051622 0.065314 0.113338
-0.218796 -0.082292 0.067492
-0.278053 0.499404 -0.180202
0.358039 0.058376 -0.184335
-0.233347 -0.082292 0.221239
-0.378645 0.543779 0.126685
0.415039 0.016983 0.347964
-0.182540 -0.017699 -0.383818
-0.299855 0.359685 0.188458
0.308727 0.061336 -0.182567
-0.298531 -0.531361 0.328611
0.437884 -0.291181 -0.362327
-0.077637 -0.371281 -0.346113
0.015241 0.067037 -0.174179
-0.069146 0.019210 0.342231
-0.261895 -0.082941 -0.283998
-0.266677 -0.188869 0.366600
-0.306166 -0.160827 0.181640
-0.186990 -0.082292 -0.247523
-0.275776 0.610694 0.186085
-0.330644 -0.215568 -0.360198
0.443119 -0.088092 -0.040076
-0.137470 -0.082292 0.253944
-0.333421 -0.051292 0.314468
-0.014414 0.066019 -0.332775
-0.159835 -0.082292 -0.022524
0.062259 -0.356783 0.361546
-0.299907 0.593616 0.045124
0.389611 0.055968 0.211131
-0.382326 0.523831 -0.106272
0.051484 0.067402 -0.126961
0.379729 -0.082292 0.306519
0.496569 -0.072922 0.084626
-0.162644 -0.082292 0.114067
-0.297952 -0.531570 -0.387559
0.493437 -0.118729 -0.213555
0.011716 -0.082292 -0.000406
0.057096 0.067449 -0.070348
-0.267735 0.069916 -0.336814
0.060228 0.067476 0.268484
-0.288634 -0.783504 -0.369825
0.114023 -0.082292 0.182706
-0.257520 0.466329 0.285633
-0.258535 0.568813 -0.313665
-0.097526 0.063374 -0.052963
-0.267721 0.589515 0.378421
-0.342656 -0.001544 0.040243
-0.254984 0.545254 0.256116
-0.267673 0.480268 0.212188
-0.089619 -0.082292 -0.054972
0.121206 -0.081285 0.376915
-0.279404 -0.572735 0.383227
0.443976 -0.299103 -0.333574
0.396291 -0.082292 -0.300518
0.413247 0.054164 -0.192625
0.426930 -0.411776 0.348007
0.437897 -0.512690 -0.379675
-0.143694 0.060970 0.170236
0.493437 -0.092719 -0.263944
0.513802 -0.002442 0.127368
0.316447 -0.082282 -0.343765
0.458235 -0.783491 -0.378332
-0.266688 0.117356 0.340009
-0.306924 0.048283 0.207232
-0.304159 0.243264 -0.332942
0.509523 -0.032785 0.043239
-0.342942 0.419268 0.258023
0.007196 -0.082292 0.320406
0.113986 -0.082292 0.353032
0.079768 0.067642 0.305885
-0.284060 0.716787 -0.288385
0.500481 0.041170 0.153252
-0.270152 -0.362911 0.381630
-0.212975 -0.082292 0.170523
-0.308120 -0.160827 0.124273
0.096063 0.067602 -0.284322
-0.342667 0.366541 0.243517
0.303929 0.061621 0.096567
0.223448 -0.082292 -0.355298
-0.077703 -0.082292 -0.130227
-0.119905 -0.082292 -0.254317
0.135786 -0.056268 -0.383818
-0.379935 0.674724 0.101464
-0.337549 0.397436 0.299448
-0.261031 0.607095 -0.236743
-0.275091 -0.109694 0.114865
-0.341122 -0.016659 0.314406
-0.259817 0.496834 0.327306
-0.256136 0.018262 -0.362721
-0.247632 0.003244 0.379464
0.239706 -0.409519 -0.357839
0.188300 0.015798 0.368250
-0.036573 -0.082292 -0.156753
0.043241 -0.082292 0.351515
-0.002021 0.066610 0.062859
-0.178331 -0.397280 0.370139
0.475583 -0.125311 0.383229
-0.319288 0.299477 -0.332945
-0.297340 -0.280645 -0.332942
-0.324974 0.044377 0.180041
-0.330644 0.338767 -0.348174
-0.363832 0.369877 -0.179858
0.440752 0.051770 -0.203437
-0.318535 0.046721 0.118832
0.413772 0.054124 -0.112935
-0.298112 0.097270 -0.387559
-0.256581 0.582678 0.277386
0.368534 -0.082292 -0.125252
-0.304058 -0.732335 -0.332942
-0.273215 0.655936 -0.386854
-0.190919 -0.082292 0.364612
0.497634 0.043498 -0.128359
0.017225 -0.057086 -0.383818
0.028320 -0.082292 0.173543
0.243751 0.064431 0.301082
-0.377385 0.451198 -0.132852
0.107549 0.067505 -0.305666
-0.386079 0.597780 0.062460
-0.266677 -0.559309 -0.349522
-0.363279 0.637673 0.192982
-0.273730 -0.136458 -0.387238
0.103216 -0.082289 -0.345196
-0.295256 -0.160827 0.249297
0.091369 -0.082292 0.042248
-0.311262 -0.298150 0.328611
0.059643 -0.082292 0.304309
0.244610 -0.082292 0.223158
-0.317202 -0.328176 -0.332943
0.512865 0.021866 -0.077227
0.349323 0.058929 -0.140034
0.451726 -0.529178 -0.387559
-0.297545 0.469299 0.074089
-0.342888 0.015229 0.177679
-0.318839 -0.033607 -0.387556
-0.323139 -0.352230 -0.332949
-0.014742 -0.007896 0.379489
-0.330644 -0.550395 0.365316
-0.312918 0.320040 0.383229
0.485605 -0.160694 -0.300095
-0.345043 0.530351 -0.261768
-0.135195 0.061465 -0.331290
-0.300616 -0.460097 0.328611
0.092127 0.067636 0.016478
-0.369102 0.566428 0.174398
-0.348865 0.717307 0.112607
-0.260664 0.439809 0.326254
-0.314667 0.021660 -0.387559
0.439293 -0.136662 0.331505
-0.376092 0.537097 -0.146106
0.513317 0.019814 0.080922
0.422897 0.053399 0.158118
0.463018 -0.339994 0.328611
-0.266952 0.092209 0.377356
0.016165 -0.082292 -0.050064
-0.257976 0.052849 0.012316
0.108940 0.067493 -0.044061
0.460250 0.049951 -0.117859
-0.322640 -0.415336 0.328618
0.196717 -0.082292 0.227728
-0.289712 -0.523618 0.383229
0.446300 -0.147810 -0.011426
0.291218 -0.082292 0.195308
-0.277153 0.589072 0.179698
0.113502 -0.082292 -0.114453
-0.368509 0.602575 -0.179313
-0.301135 0.471072 0.022239
0.104860 0.067528 -0.203936
0.387375 -0.082292 -0.323074
-0.058723 -0.055779 -0.383818
-0.266037 0.709433 -0.246821
-0.341824 0.021171 -0.057021
-0.269571 0.410478 0.211946
-0.150403 0.060572 0.262735
0.398457 -0.082292 0.048756
-0.100658 -0.082292 -0.033196
-0.385376 0.532790 -0.079919
-0.033523 0.016999 -0.356486
0.459733 -0.519514 0.383229
-0.325568 -0.072435 0.111697
-0.319098 0.715480 0.277823
-0.330644 -0.484397 0.351194
-0.261291 0.707714 0.257158
0.214434 0.017069 -0.357774
0.442388 -0.742123 -0.333818
0.104310 0.067532 -0.084890
-0.020104 0.066151 0.092868
-0.268530 0.566001 0.379025
0.501840 -0.748822 0.339900
-0.381928 0.366919 -0.040294
-0.281915 0.716510 -0.265051
0.495303 -0.076410 0.201147
-0.258291 0.403713 0.272471
0.446300 -0.110214 -0.036372
-0.326673 0.043184 0.009760
-0.179670 0.058833 0.063757
-0.367785 0.364498 0.127251
-0.317527 0.064207 0.328358
-0.267080 -0.519208 -0.382117
0.473382 -0.677577 0.383229
0.043860 -0.409520 -0.365776
0.291581 -0.082292 -0.236891
0.485528 -0.435387 -0.332942
-0.288256 0.055661 0.383229
0.234496 -0.082292 0.245426
0.014977 -0.082292 0.083249
-0.329810 0.178014 0.333230
-0.266677 0.318164 0.355538
-0.301969 0.649358 -0.033594
-0.276600 -0.718949 0.328616
-0.211637 -0.082292 -0.046902
0.504481 -0.051760 -0.034594
-0.341152 0.360813 -0.205825
-0.326275 -0.224582 -0.335081
0.478964 -0.783504 0.351871
0.442553 -0.087505 0.287264
0.296840 -0.393018 0.341701
0.387851 0.056102 -0.235198
-0.330644 0.302814 0.352281
0.485896 -0.385734 0.383229
-0.327000 -0.069093 -0.230077
-0.249536 -0.082272 -0.335972
0.369843 0.057476 -0.256929
0.488448 0.021389 -0.356050
-0.288884 0.365244 -0.172957
-0.341549 0.617987 0.269779
-0.031424 0.065863 -0.286040
-0.339582 0.646809 -0.289559
-0.050076 0.065379 -0.132758
0.422793 -0.356888 -0.353397
-0.266677 -0.532690 -0.360336
-0.052133 -0.380323 0.341701
-0.275091 -0.131769 -0.022495
0.062895 0.067499 -0.021783
0.460701 -0.271486 -0.387559
0.188802 -0.082292 0.092410
-0.263093 -0.083380 -0.248276
0.437884 -0.451356 0.368057
-0.330644 -0.410712 -0.359412
0.013590 0.067004 0.282091
0.134245 -0.082292 0.008953
0.404823 -0.082292 -0.257510
0.442148 -0.250908 -0.333855
-0.320119 0.666112 -0.387555
-0.296220 0.432340 0.091260
-0.266566 0.391549 -0.227221
-0.275642 -0.153587 -0.177852
-0.266677 -0.447704 0.362497
-0.323160 -0.033760 0.383221
-0.284152 -0.230099 0.328611
-0.069809 -0.408833 -0.351939
0.495527 -0.710940 -0.387336
-0.266677 0.048327 0.351218
-0.303987 0.373953 -0.032325
0.298449 -0.082292 -0.055972
-0.329657 -0.062277 -0.113799
0.470203 -0.698423 -0.332942
0.233190 0.064878 -0.053378
-0.342683 0.357352 -0.099885
0.446300 -0.135334 -0.312148
0.386815 -0.393680 0.370140
0.067033 0.067534 0.090627
-0.264932 0.705800 -0.333826
-0.358545 0.528723 0.215175
0.493437 -0.114822 -0.240393
-0.330644 0.202446 0.357681
-0.266677 -0.299603 0.356624
0.501851 -0.497915 -0.354777
0.477874 0.048307 -0.058815
-0.362398 0.711684 0.149016
-0.301502 0.357202 -0.252483
-0.330644 0.138827 0.360691
0.261849 -0.063657 -0.383818
-0.340694 0.022581 0.329707
0.501280 -0.204402 -0.338132
-0.275091 -0.151449 -0.067069
0.414237 0.054088 -0.166548
-0.042126 0.065592 0.237723
0.059519 -0.082292 -0.255821
0.128208 0.067330 0.233717
-0.322230 -0.147438 0.067437
0.049265 -0.356774 -0.365845
0.446300 -0.096862 -0.118227
-0.301168 -0.203712 0.328611
-0.082705 -0.357021 0.362390
-0.387722 0.645463 0.007774
-0.052808 -0.082292 -0.005841
-0.168838 -0.082292 0.353797
0.331503 -0.082292 -0.148017
-0.166145 0.059639 0.203048
-0.100536 -0.081681 0.376714
-0.313380 0.361578 0.088068
0.440770 -0.212888 0.381767
0.211342 -0.082292 0.369400
0.490869 0.046571 -0.330413
0.344852 -0.077444 0.378395
0.119852 -0.082292 -0.362414
-0.276168 0.553962 -0.186471
-0.388065 0.438952 -0.008329
-0.277193 -0.591612 -0.332945
0.426251 0.053116 -0.031333
0.079188 0.067637 0.282596
0.422128 -0.366010 0.369723
0.229495 -0.409521 0.360032
-0.307787 -0.213349 -0.332942
0.493437 -0.137803 0.069341
-0.089312 0.063722 -0.310752
-0.115705 -0.033678 -0.383818
0.386263 -0.395344 -0.374470
0.439317 -0.185117 0.379096
0.496763 -0.183349 -0.387284
-0.045250 0.065510 -0.245737
-0.312607 -0.086808 0.383229
0.511911 -0.019572 0.265208
0.501819 -0.073939 -0.341184
0.228271 -0.082292 -0.307861
-0.135064 0.061482 -0.278714
0.211674 -0.038583 0.379489
0.280382 -0.082290 -0.332045
-0.340636 0.573703 -0.293310
0.506997 -0.043055 -0.291452
-0.370389 0.361400 -0.021871
0.280980 0.062855 -0.013126
0.019077 -0.082292 -0.094537
-0.335160 0.376422 0.321820
-0.346285 0.412137 -0.251612
0.511325 -0.023184 -0.280902
0.049057 -0.082292 -0.032037
-0.330644 -0.437862 -0.360719
-0.284705 -0.160807 0.148130
-0.294809 0.432622 -0.387559
-0.325737 -0.267373 0.381284
-0.298345 -0.582986 -0.332942
-0.106389 0.062999 0.050847
0.493716 -0.082295 0.267017
0.406731 -0.056601 -0.383818
-0.160656 -0.082292 -0.276664
-0.330644 0.280721 0.357452
-0.339232 -0.028134 0.018244
0.501851 -0.512406 0.348803
-0.062167 -0.388268 -0.346031
0.036773 0.067277 -0.254301
-0.276679 -0.432127 0.383225
-0.296095 0.522807 0.082090
0.110012 -0.082292 -0.075480
0.496437 0.044233 -0.075065
0.139954 0.067230 0.052045
0.072133 -0.082277 0.338448
0.179803 0.066443 -0.097199
-0.075811 -0.024187 0.379489
-0.032322 -0.401772 -0.346137
-0.322230 -0.107894 -0.273094
-0.035621 0.065757 -0.152530
-0.300340 0.526662 -0.034133
0.069307 -0.082292 -0.322646
0.462838 -0.760797 0.383229
0.490177 -0.160440 0.226610
-0.286702 0.716714 0.328256
-0.300313 0.442447 0.049700
-0.301510 0.624018 -0.026875
0.057475 -0.082292 -0.115882
0.249325 -0.360506 0.345687
-0.317245 0.196730 -0.332943
0.478007 -0.166646 0.323775
-0.297114 0.374491 0.099157
0.188510 0.066222 -0.031733
-0.375733 0.489799 0.141982
0.163302 -0.082292 0.200298
0.176392 -0.082292 -0.008082
-0.297858 -0.160827 -0.255489
0.496410 -0.073291 -0.184053
-0.281296 0.398414 -0.387559
-0.266677 0.412250 -0.364891
0.307599 0.061403 -0.009843
-0.212128 -0.082292 0.088666
0.102623 -0.082292 -0.135624
0.297214 -0.375986 -0.374467
0.405553 -0.408614 -0.351668
0.481444 -0.322855 -0.332942
0.498776 -0.608619 0.330851
-0.285831 0.050251 -0.287959
-0.268870 -0.167752 0.331892
-0.386770 0.680323 0.001049
-0.244102 -0.082292 0.368537
-0.330602 0.662230 0.376569
-0.261105 0.543665 -0.336903
-0.183421 -0.409427 -0.352674
0.439234 -0.683387 0.332460
0.235153 0.064795 0.056370
-0.159365 0.060041 -0.082947
-0.292578 0.514641 0.106106
-0.330644 -0.257331 0.352904
0.183842 0.066340 -0.173397
-0.291398 0.049731 -0.175298
-0.369376 0.521782 0.173416
0.434636 -0.355585 0.341072
0.477704 -0.160827 0.294317
0.091450 -0.082292 -0.114419
-0.371022 0.629047 0.160521
0.471576 0.048894 -0.005096
-0.322230 -0.095000 -0.097448
0.497173 -0.783357 -0.375223
-0.272935 -0.092378 -0.189399
0.106324 -0.030143 0.379489
-0.330680 0.406046 -0.352451
-0.225103 -0.364775 0.343252
0.067317 0.067536 -0.310101
0.405078 -0.082292 -0.192800
0.470617 -0.535781 -0.332942
-0.323067 0.361360 -0.294118
-0.162964 0.059827 0.300875
0.379804 0.056716 0.177403
0.223509 -0.082292 -0.107183
-0.200956 -0.082292 0.001990
-0.339576 -0.026363 0.050577
-0.333321 0.362346 -0.247172
-0.299987 0.577602 -0.046279
-0.256405 0.551599 0.278072
-0.317703 -0.314250 0.383227
-0.338219 0.568018 0.320378
0.068285 0.014199 -0.377487
-0.268855 -0.749609 -0.383599
-0.327464 -0.285572 -0.335914
0.368379 -0.365917 0.342876
0.507911 -0.039617 0.294873
0.469725 -0.248564 -0.387559
-0.094589 -0.010427 0.379489
-0.330370 -0.753807 0.333850
-0.322230 -0.148522 0.301726
-0.323339 0.586345 -0.387472
-0.256022 0.495732 -0.273464
-0.266140 0.523470 -0.219812
0.484804 -0.718870 -0.332942
-0.282828 0.142018 -0.332942
-0.355581 0.591665 -0.228782
0.045214 0.067349 0.023411
-0.343321 0.642319 0.258210
-0.342955 0.003211 0.157726
0.032922 -0.387488 0.341701
-0.311974 0.717702 -0.252430
-0.238143 -0.082292 -0.036478
-0.306303 0.116461 0.383229
0.360187 -0.397982 0.370130
0.437884 -0.147855 0.359452
0.376529 -0.028240 0.379489
-0.356522 0.651458 0.216179
-0.268768 -0.587441 -0.383534
0.498124 -0.547877 0.330083
0.459258 -0.506795 -0.387559
0.004271 -0.082292 -0.173305
-0.314639 0.230269 0.383229
-0.179725 -0.357997 0.363453
-0.260889 0.690057 -0.308295
0.437884 -0.504225 -0.351448
0.500434 -0.175567 0.332805
-0.258132 0.514688 -0.243491
0.033188 -0.082292 -0.015241
-0.259330 0.457850 -0.315984
0.000800 -0.389105 -0.374470
-0.286773 0.621499 0.383229
-0.316089 -0.160784 0.024805
-0.276325 0.541298 0.383224
-0.387097 0.508422 0.055189
0.248543 0.064229 -0.169665
0.206537 0.031652 0.334648
-0.009196 -0.371515 0.370060
-0.330625 -0.232350 0.338937
-0.294728 0.638260 -0.104667
-0.372570 0.416111 -0.153382
0.150263 0.067139 0.306880
-0.277607 -0.178622 0.383225
-0.322230 -0.115325 -0.159483
-0.384706 0.690348 -0.052877
-0.266703 -0.107025 0.337958
-0.266677 0.241458 -0.363997
-0.322230 -0.105576 -0.015392
-0.284263 0.686301 -0.167387
-0.324463 -0.081229 -0.386601
-0.115126 0.060891 0.330473
0.364842 -0.082292 0.225166
-0.383888 0.670493 -0.070438
-0.314369 0.357315 0.213550
-0.321663 -0.153639 0.274763
-0.385462 0.703956 0.003523
0.206099 0.065775 -0.304980
0.487886 -0.503582 -0.387559
0.493437 -0.137250 -0.234085
0.493437 -0.089780 -0.153724
0.437884 -0.740035 0.358189
-0.341165 0.714430 0.205551
0.415375 -0.082286 -0.332862
-0.289632 0.621422 0.128557
0.039022 0.015062 0.370875
-0.140497 -0.385976 -0.374470
0.339776 0.059495 -0.200663
-0.066913 -0.004126 -0.383818
-0.293559 0.215249 -0.387559
-0.260465 0.393044 -0.306193
-0.321310 -0.644976 -0.332947
0.258379 0.063812 -0.075231
0.085661 -0.082292 0.129596
0.477232 -0.655560 0.383229
-0.297267 0.707520 -0.122727
-0.309680 0.160357 0.383229
-0.364491 0.617835 -0.194721
0.313497 -0.082292 0.049632
0.359645 0.058254 0.023457
0.458388 0.050125 -0.185846
0.076097 -0.082292 0.234747
0.133631 -0.082292 -0.095393
-0.344911 0.509524 0.257574
-0.294993 -0.612874 0.383229
-0.270192 0.625407 -0.210793
0.014134 -0.408201 0.346828
-0.318489 0.439215 -0.387557
0.474175 -0.403341 -0.387559
-0.167986 0.059530 -0.169989
0.029665 0.067217 -0.116596
-0.262729 0.620748 0.335349
-0.335809 0.701848 -0.314864
-0.270466 0.544441 0.202314
-0.384404 0.457996 -0.081400
0.459284 -0.400907 0.328611
-0.300139 0.048916 -0.196047
-0.322230 -0.130387 -0.015449
-0.289067 0.693655 0.382657
0.441020 -0.110216 -0.332155
0.267928 -0.355530 0.357101
-0.297447 -0.273619 0.328611
0.227750 -0.082292 0.180974
0.220530 0.065381 0.145362
-0.255278 0.522212 -0.265143
-0.386756 0.658698 0.026603
0.457485 -0.692940 0.383229
-0.324770 -0.631851 0.329695
-0.296888 0.701856 -0.347139
-0.314236 0.692838 -0.387105
-0.279829 -0.160106 0.177608
-0.117635 -0.082292 -0.213755
0.511807 0.022224 0.330854
0.269424 -0.082292 0.325994
-0.270318 -0.133901 -0.330485
-0.285193 0.658726 -0.158884
0.477853 -0.177476 0.383229
-0.386213 0.673560 -0.032501
-0.352876 0.461579 0.231877
-0.323396 -0.409352 -0.333061
0.039593 -0.364291 -0.347739
0.096697 -0.082292 -0.040188
0.290506 -0.082292 -0.282802
-0.277920 -0.642071 -0.332945
0.513066 0.020952 -0.260061
-0.330644 -0.405714 0.353686
0.437884 -0.227394 -0.359308
-0.120358 -0.409520 -0.358398
-0.299885 0.463067 -0.053592
0.036640 -0.082292 0.270263
-0.340260 -0.022312 -0.230762
0.445780 -0.464265 0.328967
-0.013714 -0.082292 0.132345
-0.129578 -0.082292 0.290867
0.356804 -0.409523 -0.360623
-0.322230 -0.092409 -0.152626
0.391148 0.017159 0.355113
-0.121740 0.062272 -0.020316
0.437884 -0.186239 -0.368881
0.423847 -0.082292 0.202366
0.251954 0.064081 -0.327236
-0.300574 0.528226 0.021728
0.111982 0.067467 0.065516
-0.332767 0.357306 -0.123382
-0.034793 0.005224 -0.383725
-0.236728 0.054569 0.225560
0.334379 -0.082292 -0.278262
-0.303544 0.410516 -0.387559
-0.053312 0.063811 -0.333421
0.480569 -0.354449 0.328611
-0.035141 -0.082292 0.202990
-0.234482 -0.358017 0.363473
-0.264034 0.394642 0.229957
-0.259133 0.677317 -0.287608
0.430141 0.052760 -0.002786
