0.325612 -0.010298 0.226682
-0.216836 -0.100329 0.019831
0.322133 -0.243913 0.413329
-0.261296 0.143949 -0.064290
-0.025030 -0.010623 0.327710
-0.265381 0.544777 -0.350258
0.040319 -0.166852 0.340092
-0.080122 -0.010298 0.192606
-0.232921 -0.311634 -0.314633
-0.254260 -0.192304 0.101388
-0.240636 0.302323 -0.087359
-0.045103 0.078446 0.337829
-0.152950 -0.210266 -0.289579
0.236483 -0.010298 0.136913
-0.256300 0.037225 0.069394
0.358978 -0.571205 -0.336533
-0.215341 -0.099819 0.137178
-0.314494 0.886330 -0.060893
-0.054634 -0.099125 -0.089519
-0.269678 0.673822 0.015813
0.128937 -0.010298 -0.053935
-0.114907 0.045992 -0.334664
0.348777 -0.329511 -0.328802
0.387408 -0.133400 -0.346041
0.061087 -0.010147 -0.375419
-0.201402 -0.093986 0.303013
-0.224475 -0.005790 -0.023151
-0.073246 -0.010298 0.083155
-0.279893 -0.189562 0.043778
-0.304470 0.535546 0.349684
-0.311272 0.746856 -0.296524
-0.264808 0.783140 0.297253
0.129223 -0.099125 -0.091872
0.287806 -0.107895 -0.350340
0.391967 -0.190131 0.152166
-0.076769 0.052711 0.334732
-0.201890 -0.110874 -0.205206
-0.264809 0.826922 -0.136761
0.041613 -0.099125 0.155561
-0.299791 0.776221 -0.188800
-0.271888 0.482466 0.371361
0.206536 -0.010298 0.079889
-0.191359 -0.578558 0.289365
-0.241033 -0.136934 0.282597
-0.128832 -0.010298 0.015648
-0.110666 0.006673 0.370571
-0.126513 -0.336740 0.305138
-0.255261 -0.055550 -0.131053
-0.031532 -0.099125 -0.185169
-0.251104 0.384396 -0.008162
-0.314494 0.849586 0.017093
-0.233747 -0.154624 -0.158238
-0.136520 0.088383 -0.333461
-0.268557 -0.093125 -0.168450
0.038942 -0.099125 0.132686
-0.192347 -0.252518 0.326088
-0.249760 0.373641 0.014686
0.101471 -0.148644 -0.347973
-0.057308 0.022391 -0.385352
0.396549 -0.150333 0.075303
0.332093 -0.010346 -0.304574
0.252735 -0.099125 0.209990
0.397682 -0.095859 0.007837
-0.196503 -0.010443 0.025793
0.301203 -0.510778 0.356308
0.391602 -0.091496 -0.177034
0.376917 -0.075119 -0.325167
0.114836 -0.099125 -0.174608
0.257289 -0.099125 0.053092
-0.286752 0.768836 0.169396
-0.095160 -0.099125 -0.238020
-0.303789 0.564193 -0.018557
0.131219 -0.010298 0.067219
-0.006855 -0.010298 0.000182
-0.089995 -0.099125 -0.176223
0.326054 -0.525191 -0.397379
-0.018800 0.056527 -0.343874
-0.039328 -0.078156 0.384241
0.321017 -0.653782 0.347681
-0.281158 -0.135359 0.039227
0.367184 -0.192304 0.216947
-0.262781 -0.557905 -0.267164
-0.006512 -0.108611 -0.389095
-0.123074 -0.099125 0.200918
0.397737 -0.061900 -0.000759
0.257782 -0.010298 0.040668
-0.309014 0.911138 -0.064054
0.187488 -0.099125 -0.240778
-0.037233 -0.150929 -0.339785
-0.185073 -0.010299 0.059839
-0.285068 0.707910 -0.317305
0.385763 -0.137873 0.250526
0.376862 -0.677400 0.382690
-0.293519 0.712920 -0.119267
-0.266892 0.750722 0.292960
-0.264810 0.835086 -0.263832
0.345732 -0.191741 -0.216805
-0.281006 -0.100976 0.014891
0.395566 -0.071584 -0.101305
0.064532 -0.099125 0.305850
-0.159424 -0.482039 0.337447
-0.174807 0.122613 0.376224
0.304159 -0.049370 -0.380173
-0.232213 -0.649263 0.342723
-0.264809 0.796367 -0.259584
0.386115 -0.166886 0.246785
-0.266985 0.528969 -0.113733
-0.071529 -0.004277 0.332892
0.267173 -0.010298 -0.009585
-0.314481 0.704079 0.086155
0.298672 -0.255891 -0.405191
-0.314493 0.795374 -0.312040
-0.140230 -0.010298 -0.066746
0.326757 -0.099125 0.077083
-0.314490 0.891173 0.171674
-0.312953 0.678228 -0.344933
-0.233747 -0.170529 0.136603
-0.093791 -0.038825 0.332404
-0.250579 0.145921 -0.035916
0.104307 -0.192304 0.363177
-0.256759 0.406777 0.324718
-0.260520 -0.411940 -0.286251
-0.091742 -0.010298 0.211297
-0.277325 -0.167227 -0.201822
-0.213784 -0.087938 0.257631
-0.245892 0.226655 0.008717
-0.291035 0.883461 -0.242146
0.359333 -0.196723 0.416636
-0.096521 -0.125923 -0.382086
-0.266991 -0.192304 -0.187019
-0.251179 -0.192304 0.048187
0.381435 -0.262964 0.345641
0.153866 -0.010298 0.038918
-0.259988 0.135457 0.076050
0.176841 -0.147594 0.349845
-0.162093 0.246592 -0.345426
0.216700 -0.099125 -0.156604
0.151789 -0.010298 -0.101093
-0.136628 -0.096526 -0.368060
0.099167 -0.010298 -0.018149
-0.312812 0.662145 0.347224
-0.310711 0.750258 0.140366
0.367258 -0.532443 -0.351427
-0.184878 -0.642849 0.310242
-0.312505 0.858444 0.306844
0.387408 -0.199537 -0.346223
-0.098681 -0.047565 -0.338741
-0.030232 -0.010792 0.302082
0.335508 -0.178086 -0.280473
-0.196614 0.160465 0.358674
-0.204944 0.321963 0.328488
0.306432 -0.099125 0.206026
-0.032813 -0.099125 -0.114336
-0.216339 -0.496142 -0.322889
-0.263002 0.178852 -0.069373
0.078036 -0.028994 0.390838
-0.107290 0.159495 0.370053
0.122069 -0.014521 -0.340297
0.305708 -0.565408 -0.387180
-0.260968 0.479586 -0.111767
-0.144488 -0.390064 0.287517
-0.309500 0.778639 0.237821
0.337911 -0.102305 0.028314
-0.264087 0.006112 -0.032423
0.251943 -0.010298 0.017864
-0.057330 -0.010298 0.114040
-0.269884 -0.051949 -0.068256
-0.219345 0.368064 -0.333243
-0.306186 0.626844 -0.023245
-0.264808 0.846592 0.153838
-0.137068 -0.037615 0.314890
-0.153069 -0.467784 0.296372
0.353845 -0.464330 0.396244
-0.197632 0.218806 0.328011
0.298581 -0.241319 0.360921
-0.264809 0.760436 -0.043814
-0.052282 -0.099125 0.026761
0.214453 -0.010298 0.040996
-0.169418 0.257454 0.332757
-0.314493 0.818933 -0.032798
0.336089 -0.147690 -0.274957
0.088328 -0.171018 0.343522
0.353483 -0.295218 0.327809
-0.234613 0.110059 -0.082922
-0.060652 -0.192302 0.344521
0.247639 -0.171907 -0.356602
-0.314492 0.763749 -0.092081
-0.314494 0.837494 0.057723
0.226031 -0.099125 -0.285514
0.348669 -0.761241 -0.375228
0.322590 -0.016021 -0.340940
0.148655 -0.099125 0.037280
0.394559 -0.069473 -0.126005
0.257473 -0.099125 -0.217338
-0.191975 -0.219509 0.245989
-0.010408 -0.192303 0.372632
-0.264811 0.905807 -0.149549
-0.030982 -0.010298 0.228719
0.298581 -0.238626 -0.394010
-0.230141 -0.599234 -0.271796
-0.124886 -0.074125 -0.331391
0.349759 -0.142896 -0.055754
0.021101 -0.101256 0.324549
-0.183886 -0.737518 0.335487
-0.309404 0.599474 -0.334332
0.301254 -0.243167 -0.332352
-0.235878 -0.514891 -0.334681
-0.187445 -0.010299 -0.127357
-0.264809 0.795471 -0.234959
0.044964 -0.099610 0.388290
-0.194665 -0.672717 0.309624
0.049873 -0.192302 0.350380
-0.105702 -0.010298 -0.045151
-0.207728 -0.528718 -0.281919
0.090313 -0.126788 -0.394810
0.376687 -0.281068 -0.408543
-0.205793 -0.228959 0.314473
0.303117 -0.010298 0.085103
-0.201405 -0.260047 -0.321505
0.177921 -0.168051 0.349922
-0.033564 -0.010298 -0.099780
-0.061736 -0.141666 -0.338338
0.019440 -0.010298 -0.025717
0.396527 -0.168683 -0.076994
-0.283168 0.901583 -0.014809
0.372237 -0.646948 -0.350171
0.143273 -0.099125 0.200152
-0.186525 -0.099125 -0.014462
-0.227001 0.005857 -0.043439
-0.003073 -0.099125 -0.079616
0.184277 -0.010298 -0.252487
-0.268361 0.602701 -0.037127
0.335524 -0.107435 -0.224111
-0.255899 -0.038333 -0.119668
-0.195960 -0.010754 -0.195305
-0.053141 -0.077364 -0.360628
0.310620 -0.099125 0.252201
0.000046 -0.133924 -0.341985
-0.298288 0.903394 -0.030659
-0.264809 0.752432 -0.017884
-0.216772 -0.452256 -0.246611
-0.080438 0.017647 0.334530
0.370724 -0.606314 0.379430
-0.123823 -0.099125 -0.091491
0.331402 -0.010298 0.006596
-0.232667 -0.031686 -0.164736
-0.164315 0.153826 -0.379400
0.226114 -0.099125 -0.242219
0.200465 -0.101519 -0.342092
-0.164228 -0.143773 0.228333
-0.030735 -0.099125 -0.004385
-0.266481 0.688330 -0.054187
0.299238 -0.467207 -0.375016
-0.312168 0.677158 0.331251
-0.098093 -0.152612 0.327205
0.378733 -0.697137 -0.362151
-0.303456 0.658393 -0.062732
-0.285708 0.565155 -0.073518
-0.306292 0.631458 -0.000944
0.142703 -0.128817 -0.350407
-0.292111 0.418044 -0.042193
-0.256121 -0.382872 -0.255856
-0.264809 0.797116 0.032195
-0.132901 -0.255843 0.316730
-0.182287 -0.370632 -0.273772
0.306076 -0.099125 -0.268790
-0.302142 0.925741 -0.167054
0.298581 -0.282497 0.346574
-0.200988 -0.593300 0.356879
-0.226936 -0.748040 0.371851
-0.084009 0.128887 -0.341253
0.077917 -0.149483 -0.346582
-0.227578 -0.560903 -0.263389
-0.235539 -0.066083 0.191146
-0.233642 -0.119696 0.101502
0.378615 -0.692562 -0.397916
0.328508 -0.099156 -0.059564
-0.314493 0.832066 -0.225739
-0.096874 -0.103901 0.319132
-0.299185 0.493168 -0.104781
-0.230873 0.236841 0.068179
-0.255699 0.424176 0.011320
-0.277518 -0.150129 0.192853
0.394528 -0.127434 0.128129
-0.228417 -0.130028 -0.318099
0.073982 -0.010298 0.007427
-0.281157 -0.108096 -0.070706
0.244041 -0.099125 0.272118
0.395813 -0.057517 0.095995
-0.287184 0.376202 -0.020282
0.020323 -0.192304 0.363270
-0.143088 -0.389330 0.322416
-0.227532 -0.302709 0.293856
0.305215 -0.099125 0.127174
-0.189174 0.199074 0.375966
0.084159 -0.010298 0.199884
-0.288004 0.382697 0.045628
-0.264809 0.849553 0.000286
-0.251921 0.110679 -0.023500
-0.049531 -0.165877 -0.386556
-0.280361 -0.108479 -0.175726
-0.264809 0.796600 -0.107510
-0.209943 -0.270030 0.270190
-0.267298 -0.586784 -0.311691
0.150072 -0.010298 0.112182
-0.294195 0.927465 0.165123
-0.253284 0.399449 -0.326960
0.386499 -0.094482 0.242033
-0.185120 -0.099125 -0.081681
-0.314482 0.748240 0.317439
-0.254618 0.414420 0.054575
-0.109742 -0.178922 -0.379242
0.333890 -0.221671 0.416436
-0.273989 0.284487 0.068729
-0.158417 -0.099125 0.010437
0.034730 -0.010298 -0.040948
0.240102 -0.099125 0.013749
-0.211167 -0.598986 -0.298903
0.061255 -0.099125 0.170220
0.121118 -0.010298 -0.164409
-0.273934 0.301593 -0.088989
0.123583 -0.099125 0.280173
0.185082 -0.192303 -0.390776
0.150919 -0.099725 -0.331822
-0.176565 -0.025434 0.276615
0.341553 -0.484498 -0.396991
-0.264809 0.809688 0.104550
0.368903 -0.576511 -0.357277
0.355560 -0.082602 -0.368794
-0.052591 -0.099125 0.107488
0.383681 -0.232234 0.413910
0.286190 -0.099125 0.195345
-0.299593 -0.718063 -0.302220
-0.281270 -0.577822 -0.289085
-0.098378 -0.185247 0.327763
-0.096127 -0.099125 -0.150591
-0.269662 -0.049942 0.076901
-0.261719 0.154383 0.058466
-0.314492 0.891027 0.065611
-0.219864 0.310519 -0.328818
-0.281158 -0.118326 0.000546
-0.177576 -0.285835 0.241209
-0.211929 0.258717 0.374701
-0.181313 0.129723 -0.352823
-0.281984 0.337327 -0.062709
-0.029915 -0.010298 -0.016071
-0.266185 0.554059 -0.041393
0.261067 -0.152708 -0.357244
0.385792 -0.231984 0.392211
-0.079200 0.123214 -0.360786
-0.189391 -0.417975 0.256698
-0.266342 0.740927 -0.365258
-0.264809 0.709152 0.046812
0.057436 -0.010298 0.150885
-0.091101 -0.010298 -0.195841
-0.096710 -0.059523 0.333656
0.326941 -0.119659 -0.417628
0.068153 -0.010298 -0.083454
0.172913 -0.107331 0.344990
-0.265791 0.871597 0.265876
0.319319 -0.370803 0.400079
-0.284378 0.757303 -0.367219
0.144754 -0.010298 0.155049
-0.305631 0.608810 0.011037
-0.278765 0.320218 0.087390
0.239214 -0.191370 -0.399741
-0.000171 -0.010298 0.166845
-0.314494 0.754827 -0.020423
-0.183408 -0.343494 0.338131
0.345066 -0.745308 -0.415728
0.056251 -0.099125 -0.057412
-0.144011 -0.423280 0.321865
0.233418 -0.099125 -0.191954
-0.063548 -0.059227 0.370716
-0.178257 -0.519521 0.286731
-0.264810 0.886534 -0.072620
-0.264810 0.778134 0.137333
0.388852 -0.036824 -0.152961
-0.295542 0.451448 0.025982
-0.232129 -0.113594 0.077767
0.230114 -0.010298 0.079848
-0.203500 -0.576387 -0.307048
-0.260710 0.080833 -0.045652
-0.262061 0.431835 -0.373957
0.011257 -0.186120 0.385037
-0.064217 0.106247 0.348946
0.000742 -0.010298 0.074072
-0.255880 0.495567 0.337311
-0.178139 0.229390 -0.331140
-0.264809 0.783352 0.006224
-0.146666 0.064650 0.372125
-0.245266 0.340104 0.068161
-0.082171 -0.099125 -0.256527
0.264659 -0.099125 -0.313613
-0.288015 0.901227 0.007789
-0.301974 0.532327 0.022132
-0.149710 -0.447150 0.294794
-0.253683 -0.093125 0.214847
-0.301488 0.903966 0.034013
0.286116 -0.176159 0.406562
-0.314491 0.918062 0.111450
0.322385 -0.177228 -0.417628
-0.067592 -0.010298 -0.233086
0.074212 -0.096818 -0.393685
-0.246821 0.422140 -0.327326
-0.028500 -0.159913 -0.387797
-0.301531 0.525331 -0.001117
0.382101 -0.038799 0.253377
0.368087 -0.609498 0.399562
0.301400 -0.029083 -0.379271
-0.314135 0.729139 -0.120173
0.308060 -0.099125 -0.001492
0.212061 -0.099125 -0.203833
0.376220 -0.307411 0.387031
-0.268328 0.239883 0.049862
-0.267123 0.779433 -0.189998
0.053061 -0.099125 -0.210334
0.395724 -0.161370 0.101721
-0.292554 0.887171 0.230397
-0.281158 -0.122947 0.064106
0.219066 -0.010298 -0.060791
0.017337 -0.099125 -0.193694
-0.260331 0.078182 0.059992
0.367155 -0.454153 0.356948
0.337606 -0.010298 -0.109561
-0.223531 0.089833 -0.048846
-0.197046 -0.099125 0.180903
-0.042115 -0.189281 0.335412
-0.012434 -0.172585 0.383859
-0.072630 -0.099125 0.100741
-0.239807 0.409784 0.372363
-0.182868 -0.306708 -0.256831
-0.224992 0.162544 0.071854
-0.066751 -0.010298 -0.212302
0.387408 -0.154927 -0.345915
0.104412 -0.010298 -0.050132
0.104991 -0.010298 0.037076
0.387408 -0.200850 0.351541
-0.292718 0.423416 0.010740
-0.314492 0.743127 -0.100414
0.325003 -0.099966 -0.186424
0.336751 -0.013299 0.337693
0.085610 -0.189919 0.389858
0.145886 -0.099125 0.270765
-0.290251 0.905555 0.192180
0.330876 -0.431600 -0.328845
0.286821 -0.125570 0.406808
0.315953 -0.099125 0.036504
0.326446 -0.474219 0.396125
0.021151 0.013997 -0.342407
0.118427 -0.010298 -0.218257
-0.008801 -0.010298 -0.097421
-0.202565 -0.741421 0.320966
-0.283792 0.350367 -0.045612
-0.228918 0.217039 0.075643
0.186859 -0.099125 -0.325279
-0.172468 -0.204333 -0.248066
-0.014801 -0.192304 -0.354659
0.298614 -0.399031 -0.338309
-0.049338 -0.099125 -0.208896
0.315703 -0.641276 0.364286
0.225570 -0.100083 0.336901
-0.114955 -0.010298 0.057055
-0.214522 -0.106372 0.221393
-0.285118 0.590930 0.059918
-0.199944 -0.554201 -0.301286
-0.269941 0.931658 0.107616
-0.194631 -0.497533 -0.307659
0.344998 -0.129850 0.167531
0.038021 0.003865 0.350651
0.367062 -0.517811 -0.366393
0.167180 -0.192304 -0.377750
0.164165 -0.010298 -0.279721
-0.289841 0.447457 0.340818
-0.174703 -0.158669 0.340297
0.063203 -0.015500 0.332294
-0.304931 0.588828 0.004824
0.384189 -0.236478 -0.411655
0.107674 -0.099125 -0.005313
-0.257654 0.497454 0.362128
-0.290358 0.721387 0.122295
-0.314498 0.767960 -0.305899
-0.264810 0.841721 -0.162765
0.346871 -0.118241 -0.133326
-0.192131 -0.389512 -0.264667
-0.280947 0.329892 0.034552
-0.185376 -0.100831 -0.192350
-0.286836 0.441794 -0.328091
0.340879 -0.190159 -0.258012
0.162544 -0.043144 0.395541
-0.280710 0.638593 -0.370765
-0.183727 -0.099125 0.135312
-0.302967 0.549072 0.000516
0.167198 -0.010298 -0.136678
-0.252939 0.399412 0.096641
-0.004516 -0.051351 -0.388290
-0.117758 -0.010298 -0.001599
-0.297034 0.467633 -0.023670
-0.158166 -0.192304 -0.341811
0.330247 -0.024370 0.354257
-0.118776 -0.052434 -0.333440
0.123882 -0.099125 -0.117551
-0.269736 -0.050597 0.053984
-0.056969 -0.099125 -0.033883
0.376088 -0.295319 0.405150
0.298583 -0.304676 -0.394119
-0.270301 -0.055466 -0.096724
-0.073681 -0.099125 -0.110308
-0.233747 -0.155527 0.103425
-0.236518 0.280992 -0.037181
-0.311766 0.907560 -0.186098
-0.196886 -0.285131 -0.317414
-0.024499 0.047700 0.385127
-0.264809 0.804650 -0.002859
-0.233174 -0.167424 0.162465
0.018126 -0.099125 0.042478
-0.264809 0.737487 -0.003183
-0.264812 0.871430 -0.213020
-0.017050 -0.013720 0.385542
0.213852 -0.167091 -0.354607
0.355106 -0.636583 -0.345188
-0.137471 0.146644 -0.380891
-0.127125 -0.377205 0.301980
-0.281158 -0.112374 -0.019347
-0.300005 0.503896 0.057283
-0.314481 0.698567 -0.016021
0.293136 -0.103666 -0.411390
-0.310083 0.806648 -0.354216
-0.264808 0.749182 -0.102149
-0.261003 0.479763 0.081593
0.281814 -0.050911 0.402184
-0.140008 -0.295709 0.273477
0.391819 -0.037044 -0.094127
-0.233718 -0.138014 0.151526
-0.281130 -0.110881 0.151622
0.388055 -0.037808 -0.175542
0.233941 -0.099125 0.055262
-0.079822 -0.010298 0.102588
0.086465 -0.099125 -0.206496
-0.196878 -0.371666 0.329010
0.221006 -0.169531 0.400535
-0.260678 0.083884 0.036740
0.394524 -0.148239 0.128209
0.297160 -0.099888 0.312765
0.381477 -0.030219 0.209173
-0.260504 0.102010 -0.064243
-0.051253 -0.099125 -0.153028
-0.084416 -0.093373 0.372754
-0.310116 0.593725 -0.354656
-0.050919 -0.010298 0.281999
-0.275634 -0.131410 0.202680
0.342955 -0.357422 0.400937
-0.111083 0.165557 -0.361198
-0.314496 0.860443 -0.191477
-0.259630 -0.468065 -0.261546
-0.281158 -0.165997 0.047032
-0.215391 -0.281612 0.308011
-0.233747 -0.146283 -0.116394
-0.244226 -0.336673 -0.300721
0.370146 -0.381812 0.373230
0.361170 -0.192304 0.297367
0.062817 -0.099125 -0.128348
-0.243284 0.326323 -0.025278
-0.241896 0.282939 -0.331174
-0.008958 -0.010609 -0.331344
-0.252267 0.205763 0.094450
-0.009097 -0.010298 0.107493
0.190782 -0.099125 -0.005812
0.394911 -0.187862 0.109040
-0.244918 -0.093126 0.256431
-0.201477 0.236473 0.375282
0.129750 -0.010298 0.103558
-0.314505 0.727455 -0.331662
0.114029 -0.099125 0.216568
-0.276479 0.673605 -0.326729
-0.268114 0.761964 -0.279114
-0.279814 -0.165463 0.176034
-0.074546 -0.010298 -0.071704
0.368629 -0.031313 0.337377
0.395633 -0.140574 0.104542
-0.112046 0.166144 -0.340600
0.392416 -0.174220 0.167817
0.391606 -0.040994 -0.132599
0.136236 -0.010298 0.018416
0.004268 -0.099125 -0.020470
-0.204873 -0.011352 -0.084868
0.044702 -0.099125 0.270196
0.335827 -0.115132 0.268269
0.298581 -0.312352 0.377588
-0.069014 0.108471 -0.340319
0.039669 -0.099125 0.075347
0.062744 -0.010298 0.024634
-0.237285 -0.373072 -0.242257
-0.281158 -0.152652 -0.003963
-0.282472 0.340872 -0.087182
-0.264810 0.864184 -0.084700
-0.260515 0.102108 0.055871
0.395227 -0.091368 -0.112064
0.278647 -0.014822 -0.348451
-0.237962 0.264393 -0.095472
0.026964 -0.099125 -0.312574
-0.227521 0.250791 -0.329147
-0.264252 0.538728 0.347965
-0.125779 -0.099125 -0.030450
-0.118654 -0.099125 -0.142637
-0.284196 0.787889 0.360904
-0.234445 -0.188836 -0.089035
-0.182218 -0.233375 0.334146
-0.039342 -0.099125 0.264471
0.166169 -0.010300 0.374331
-0.122707 0.135136 0.332175
-0.138060 -0.010298 0.254280
-0.040269 -0.099125 0.286950
0.304706 -0.010298 -0.056696
0.299894 -0.010298 0.198330
-0.256064 0.427682 -0.060303
-0.314487 0.700617 -0.061311
0.135030 -0.192304 -0.379767
0.373890 -0.192304 0.024039
0.001661 -0.010298 0.276637
-0.228926 0.217139 0.053956
-0.219743 -0.274984 -0.328738
0.374485 -0.192300 0.261549
-0.314493 0.720691 0.058836
0.149274 -0.010298 -0.264884
0.008801 -0.122988 -0.389999
-0.314495 0.864335 -0.067674
0.330154 -0.717236 0.385602
-0.217745 -0.017550 -0.178688
-0.267584 0.349858 -0.367446
0.098770 -0.099125 -0.234971
0.273703 -0.099125 -0.130563
0.356654 -0.011196 0.133730
0.279100 -0.099177 0.329568
0.298767 -0.445390 -0.353638
-0.203640 -0.011168 0.070765
-0.173053 -0.010298 -0.205286
0.333470 -0.584647 -0.399564
-0.264956 0.380294 -0.118186
0.351284 -0.191195 0.110009
0.061529 -0.099125 0.115794
-0.246668 0.350287 -0.010999
-0.112609 0.168327 0.350811
-0.264838 0.696056 -0.347589
0.350246 -0.179734 -0.010313
-0.274688 0.641794 0.342979
-0.269288 0.634267 -0.000745
-0.017992 -0.099125 0.262496
-0.264809 0.776287 0.026439
-0.220089 -0.219689 0.280016
0.083144 -0.102258 -0.335552
-0.242620 -0.083788 -0.146820
0.334668 -0.110747 -0.264654
0.339652 -0.674197 -0.406717
0.370075 -0.192304 -0.148902
0.042827 -0.024510 0.388878
-0.264924 0.705560 0.361849
-0.126045 0.167900 0.379474
0.269876 -0.068668 0.401520
0.395932 -0.130113 -0.096051
-0.284642 -0.728016 -0.330671
-0.268564 0.608629 0.022970
-0.281158 -0.116614 0.121469
-0.255827 -0.572816 -0.324698
-0.264808 0.911289 0.110131
-0.021848 -0.113094 -0.339302
-0.113073 -0.125868 0.372334
-0.098953 -0.099125 0.006488
-0.265535 0.692562 0.061127
0.387407 -0.182595 0.341845
-0.147420 -0.010298 0.084234
-0.223183 -0.240957 -0.324924
0.347753 -0.109701 -0.020217
-0.275156 0.397879 -0.372137
-0.225022 0.037662 0.014011
-0.155498 -0.576751 0.322247
0.243666 -0.010298 -0.300937
-0.171345 -0.615547 0.345205
-0.206299 -0.499443 -0.275211
0.309778 -0.010298 -0.091701
0.313824 -0.531027 0.331853
-0.283897 0.462820 -0.325269
0.323580 -0.199513 0.416636
-0.273174 -0.184224 -0.218983
-0.162905 -0.150482 -0.250427
-0.293629 0.780071 -0.224904
0.344018 -0.148335 0.181115
-0.308973 0.938338 0.117798
0.128677 -0.181579 0.346428
0.166877 -0.099125 0.159797
-0.078756 -0.174868 -0.336615
-0.109977 -0.099125 0.086726
-0.008725 -0.010298 0.225244
-0.224445 0.079918 -0.070259
-0.149094 -0.201311 0.249845
-0.095202 -0.010298 -0.086051
0.059768 -0.099125 -0.287458
-0.306903 0.785428 0.361498
-0.281386 0.474915 -0.130518
-0.079400 -0.010298 -0.251517
0.332093 -0.580122 0.398288
-0.276981 -0.675580 -0.323832
0.324420 -0.342643 0.402196
0.397617 -0.143169 0.013378
-0.234045 -0.184570 0.038248
0.338331 -0.010318 -0.226834
-0.234247 -0.186731 -0.140420
-0.032664 -0.010358 -0.298475
-0.218362 -0.654186 -0.316739
0.332353 -0.156047 0.305772
-0.240267 -0.345840 -0.243319
0.301282 -0.441199 0.392686
0.390603 -0.032007 0.040357
-0.259337 0.323481 0.348918
-0.142368 -0.099125 -0.064990
-0.281155 -0.133432 0.148052
0.323929 -0.565837 -0.398702
-0.279933 -0.120669 0.174486
0.326039 -0.010298 -0.061197
-0.265861 0.895505 0.000897
0.106463 -0.106802 0.339111
-0.232104 -0.113527 -0.089368
-0.308522 0.933727 -0.110969
0.283862 -0.010298 -0.298967
-0.312490 0.637542 -0.352761
-0.314493 0.747630 0.008887
0.332379 -0.184392 -0.308701
-0.268020 0.563142 0.344714
-0.263017 0.022181 -0.018836
0.065730 -0.181353 -0.345863
-0.255931 0.018748 -0.084478
-0.281158 -0.134572 -0.121895
-0.249947 -0.155653 0.268530
0.273582 -0.099146 -0.332051
0.135885 -0.078110 -0.396107
0.022235 -0.010298 -0.193769
-0.310864 0.646069 -0.327833
0.341670 -0.144828 0.213295
0.010828 -0.010298 -0.046438
-0.232754 -0.296544 -0.236174
-0.222236 0.235074 0.373979
0.041711 -0.188046 0.386381
0.314634 -0.099775 0.300418
-0.266813 0.225746 0.067536
0.038198 -0.134185 -0.391734
-0.134948 -0.099125 -0.007678
0.110667 -0.010298 0.227258
-0.215361 -0.100766 0.190900
-0.278150 0.664078 -0.368498
-0.229813 0.399319 0.351250
-0.313695 0.695769 -0.094417
-0.122321 -0.010298 -0.111799
0.186386 -0.099125 0.287429
0.305306 -0.482467 0.395544
-0.255289 -0.192304 -0.204910
-0.192980 0.153744 -0.350361
-0.314496 0.774605 0.102806
-0.169552 -0.503098 0.348539
-0.159367 -0.099125 -0.163637
0.203903 -0.010298 -0.029704
0.317500 -0.099125 -0.207178
0.134215 -0.010298 0.177246
-0.257293 -0.127324 0.254891
0.298581 -0.246777 0.382764
0.357613 -0.026676 -0.354955
0.310612 -0.010298 -0.020958
-0.307428 0.908217 0.053918
0.330762 -0.480739 0.328897
-0.163177 -0.244993 -0.270475
-0.285649 0.751974 -0.145208
-0.159572 0.150119 0.377613
-0.286795 -0.708712 -0.320694
0.313838 -0.627701 0.391796
0.007018 -0.152356 0.385248
-0.234691 0.023594 0.074762
0.226731 -0.010298 0.229202
-0.250759 -0.012826 -0.102056
0.305552 -0.548498 -0.339339
-0.257087 -0.195482 -0.275577
0.110563 -0.053290 0.392647
0.278427 -0.011364 -0.326303
0.115848 -0.116899 -0.396317
-0.185477 -0.060253 -0.292038
0.244935 -0.010298 -0.086571
0.305241 -0.099125 -0.301483
0.093510 -0.066472 0.391698
-0.261161 0.052609 -0.070732
-0.272833 0.281344 -0.010689
-0.310743 0.739048 -0.367774
0.343322 -0.166701 0.190649
0.320843 -0.671144 0.390910
0.016983 -0.082303 -0.389487
-0.223049 -0.086959 -0.248362
-0.106233 0.053319 0.333095
-0.215451 -0.113290 -0.333958
-0.042711 -0.010298 0.209371
0.117096 -0.010298 -0.270121
-0.314493 0.923737 0.132595
-0.194449 0.266519 -0.377718
0.349990 -0.172465 -0.034936
-0.314493 0.747031 -0.054131
0.135038 -0.073562 0.394011
-0.282004 0.337370 0.060318
0.090510 -0.099125 -0.135191
-0.228670 -0.634821 -0.326172
-0.238988 0.354005 -0.375242
0.363544 -0.014434 0.198073
0.307423 -0.501318 -0.331168
-0.126208 0.030827 -0.372093
0.349574 -0.175473 -0.062127
-0.241025 -0.234565 -0.299210
-0.120409 -0.224999 0.277542
-0.107810 -0.186482 0.283334
0.360296 -0.340653 0.402374
0.339496 -0.629766 -0.402598
0.297706 -0.099125 -0.137821
0.341554 -0.169719 0.214855
-0.180266 -0.010298 -0.019284
-0.314475 0.723816 0.321614
0.348968 -0.143834 -0.081565
0.136264 -0.010298 0.273483
-0.243017 -0.432824 -0.248545
-0.225241 0.032814 -0.058487
0.282016 -0.099125 0.090534
-0.239805 -0.460454 -0.247336
-0.236307 -0.755638 -0.323927
-0.264809 0.811078 -0.088794
0.189956 -0.169038 0.398317
0.261984 -0.125171 -0.404943
0.038156 -0.010298 0.170180
-0.152945 -0.103189 0.357869
0.370661 -0.372998 -0.335962
-0.197521 -0.227465 -0.217455
-0.267178 -0.028517 -0.001961
0.336352 -0.651841 0.403577
-0.073788 -0.099125 0.162241
0.213362 -0.099125 0.313015
-0.239259 -0.115345 0.285313
-0.264998 -0.192037 0.210457
-0.059065 -0.108128 -0.385992
0.199037 -0.010298 -0.237171
-0.264814 0.906217 -0.174137
0.193786 -0.010298 0.044431
-0.239777 0.351713 -0.327712
0.040412 -0.177200 -0.344369
0.142399 -0.014407 0.340176
-0.265553 0.701322 -0.083561
-0.232848 -0.587685 0.313450
-0.054291 -0.010298 0.074765
0.139116 -0.099125 -0.029435
0.302178 -0.410754 0.394693
-0.250003 0.375658 -0.071173
-0.174108 0.114594 -0.369646
-0.225637 -0.335060 -0.232635
0.258044 -0.189659 0.401288
0.192264 -0.099125 -0.180781
0.344555 -0.078586 0.368115
0.183508 -0.126491 0.350321
-0.274785 -0.192109 -0.104651
-0.256546 0.432050 0.094524
-0.272109 -0.629744 -0.276438
0.030774 -0.191513 0.342161
-0.288762 0.388717 0.096056
0.363413 -0.011999 0.065546
0.073673 -0.044533 -0.392643
-0.104933 -0.099125 -0.293235
0.346966 -0.058937 -0.365526
0.372081 -0.352816 0.365848
-0.124746 -0.253889 0.278819
-0.264705 -0.001790 -0.066033
-0.264820 0.724649 -0.110722
0.311076 -0.288268 0.327835
-0.292709 0.467501 -0.370125
0.142608 -0.113388 0.346083
0.002073 -0.010298 -0.116427
-0.256809 0.434852 -0.018119
0.161612 -0.099125 0.081043
-0.115207 -0.169282 0.318899
-0.281158 -0.133735 0.083483
-0.017434 0.053820 -0.376383
0.299213 -0.466425 -0.353214
-0.070136 -0.075020 -0.344113
-0.268791 0.568529 -0.350132
-0.298550 0.494358 -0.348231
0.190028 -0.010298 0.261473
-0.289978 0.442587 0.362258
0.309603 -0.010298 -0.259281
-0.314490 0.883396 0.152128
0.200201 -0.171892 -0.401296
0.373969 -0.331507 -0.375325
-0.202849 -0.099125 -0.068533
-0.078479 -0.091864 -0.355569
-0.195856 0.178883 -0.330227
-0.228406 -0.472898 0.313944
-0.252251 0.393644 0.059153
-0.233747 -0.159716 0.032306
-0.155922 -0.509367 0.331924
-0.163735 0.094934 -0.374161
-0.117444 -0.220451 0.299953
-0.264809 0.866253 0.032061
-0.193984 -0.112596 -0.339257
-0.250359 -0.711534 -0.280655
0.298581 -0.333053 -0.362615
-0.041238 -0.129826 -0.339548
0.297148 -0.044374 -0.404269
0.104755 -0.023692 0.392325
0.211818 -0.099125 -0.002458
0.044218 -0.010298 -0.135887
0.036907 -0.099125 0.213255
-0.031343 -0.099125 0.242503
0.239754 -0.099125 -0.121571
0.392958 -0.145137 0.158259
-0.253429 -0.753748 0.350236
0.364271 -0.017589 0.254466
0.259678 -0.099125 -0.255045
0.182707 -0.010298 -0.003134
-0.050185 -0.010298 -0.111939
-0.039661 -0.099125 -0.258734
-0.172821 -0.480588 0.353195
-0.103633 0.026023 0.380727
0.267924 -0.099125 0.185288
-0.266087 -0.192304 0.062623
-0.124231 0.028381 0.361736
-0.229238 0.220377 -0.092340
0.387391 -0.108178 0.339304
0.397229 -0.140340 0.050424
-0.045446 -0.192304 0.360579
-0.056035 -0.010298 -0.017187
0.382562 -0.146372 -0.284054
0.397421 -0.070954 -0.027461
-0.208474 -0.299325 0.269839
-0.085566 -0.011750 -0.327065
-0.271378 0.672713 0.055402
0.379852 -0.275841 -0.388806
0.359235 -0.192297 0.150187
-0.301632 0.542583 0.369093
-0.268236 0.361640 0.329648
0.344328 -0.193482 -0.417628
-0.227167 -0.234712 -0.229908
0.117941 -0.010298 0.085864
-0.270347 -0.055670 0.099888
0.366559 -0.192304 -0.288661
0.132358 -0.057375 -0.395911
-0.232863 -0.031675 0.130063
0.160850 -0.010300 -0.375168
-0.295783 0.780196 0.220487
-0.146923 0.191146 -0.380361
0.250252 -0.135758 0.355085
-0.073513 -0.010298 -0.002036
0.043637 -0.099125 -0.140858
0.340073 -0.157031 0.231901
-0.263824 0.348489 0.369711
-0.301462 0.628114 0.055900
0.302455 -0.527925 -0.342528
0.229362 -0.099125 0.296816
0.082265 -0.019015 -0.392994
0.326645 -0.698768 -0.403251
-0.314494 0.777536 0.000995
-0.242085 0.289035 0.326654
-0.264811 0.870384 -0.141307
0.034920 -0.010298 -0.114646
0.237613 -0.012307 0.353415
0.249719 -0.146407 0.402585
-0.303271 0.554393 -0.059323
-0.259413 0.461394 0.095940
0.078784 -0.010298 0.068184
0.062315 -0.192304 -0.368824
-0.246599 0.349811 -0.032596
-0.196181 -0.152018 0.322544
0.129616 -0.010299 0.361454
0.165790 -0.099125 0.010642
-0.289431 0.941264 -0.125002
0.303712 -0.132740 0.416177
-0.314475 0.714454 0.105365
-0.268168 0.246171 0.087697
-0.030843 -0.190508 0.379170
0.010954 -0.033233 -0.389152
-0.076300 -0.010298 -0.153318
-0.132330 -0.035127 -0.322836
0.007883 0.029209 -0.371906
-0.128804 -0.142320 -0.323046
0.386425 -0.227445 0.348237
0.136658 -0.099125 0.098624
-0.255968 0.453071 -0.326812
-0.226146 -0.324087 0.297997
-0.137478 -0.367022 0.316789
-0.269433 0.577743 0.327221
-0.269508 -0.058831 0.120184
-0.097500 0.032906 0.333582
-0.314493 0.817358 0.050583
-0.314497 0.849686 -0.286816
0.369197 -0.121363 -0.417628
-0.251764 -0.091333 0.157149
0.376585 -0.162073 -0.417606
0.369826 -0.192668 -0.417628
-0.243056 -0.093236 -0.260245
0.020810 -0.004879 0.338178
-0.272449 0.504909 -0.373376
-0.265489 0.775290 -0.261127
-0.234952 -0.052764 -0.202344
0.190423 -0.010302 -0.305446
-0.157802 -0.262020 -0.290549
-0.084917 -0.192304 -0.360576
-0.264810 0.768238 -0.347595
-0.264809 0.796479 -0.319508
0.107463 -0.099125 -0.093726
0.335767 -0.102738 0.171934
-0.243467 -0.299947 -0.298790
-0.254330 0.411868 0.034200
-0.251842 0.301768 0.340826
-0.226362 -0.195699 0.274968
0.238839 -0.010298 -0.259364
-0.092859 -0.100004 0.260737
-0.128166 -0.209877 0.314539
0.340590 -0.362496 0.327809
-0.196606 -0.398616 0.260553
-0.306742 0.653896 0.010666
-0.296664 0.463229 0.101080
0.298581 -0.309297 -0.370219
0.043450 -0.099125 0.008349
0.387408 -0.127978 0.351791
-0.214600 -0.239992 0.274363
-0.152394 -0.542827 0.325977
-0.164916 -0.536066 0.301502
-0.304299 0.575254 -0.055848
-0.223829 -0.207117 0.298851
0.348914 -0.181706 -0.084160
-0.232309 0.249067 0.016317
0.288527 -0.195162 -0.379327
-0.117092 -0.081233 0.329364
-0.100579 -0.099125 0.031893
-0.192898 -0.010370 0.144526
0.040213 -0.117060 0.339901
0.320493 -0.551338 0.333583
-0.029800 0.067778 0.349829
0.206787 -0.010298 -0.143555
-0.264809 0.782348 0.073263
0.396451 -0.187954 0.001799
0.390136 -0.111043 -0.200067
-0.233747 -0.132948 -0.132595
0.348076 -0.125614 0.108496
0.326943 -0.378461 -0.328802
-0.180477 -0.559769 0.294021
-0.225438 0.171184 0.049842
-0.260937 0.479108 -0.012165
-0.261751 -0.219854 -0.269113
-0.011025 -0.099125 0.115081
-0.106224 0.125893 -0.382629
0.274764 -0.099125 0.212493
-0.314498 0.752270 -0.344840
-0.088719 -0.089626 0.342646
-0.265357 -0.008897 0.016776
-0.314481 0.774385 0.278006
0.356467 -0.011343 -0.149496
0.289698 -0.010298 -0.003165
-0.314494 0.796470 -0.335110
0.391649 -0.155246 0.178331
-0.264809 0.820588 -0.317772
-0.117006 -0.194859 0.301122
-0.224813 -0.573410 0.333380
0.022894 -0.154052 0.338847
-0.264700 0.528919 -0.030546
0.330651 -0.152638 -0.313915
0.158889 -0.031833 -0.397387
-0.285806 0.426454 0.343673
0.324722 -0.099974 0.194285
0.114386 -0.099125 -0.280209
-0.090710 -0.010298 -0.131048
-0.144476 -0.170945 0.248877
0.210971 -0.010298 0.008524
-0.098477 -0.099125 -0.036214
-0.254184 -0.448283 -0.256972
-0.085958 -0.010298 -0.029173
0.312392 -0.099125 -0.169886
-0.203933 -0.756512 0.375370
0.126452 -0.099125 -0.207993
-0.172880 -0.201916 0.230377
0.128487 -0.099125 -0.068452
0.015846 -0.010298 -0.252575
0.103978 -0.101005 -0.332947
-0.025623 -0.099125 -0.215199
0.347955 -0.621077 0.400916
0.084616 -0.010298 0.226314
-0.162403 -0.010298 0.104954
0.054448 -0.099151 -0.321413
-0.146006 -0.192223 -0.359389
0.350293 -0.737494 0.413656
-0.094880 -0.010298 0.142105
-0.261619 0.152318 -0.083070
0.349538 -0.115114 -0.417628
0.195303 -0.099125 0.150883
-0.009190 -0.099125 -0.228941
-0.267325 -0.030018 0.041257
0.337632 -0.134585 -0.258881
0.394557 -0.177273 0.127575
-0.277465 -0.112546 0.193135
-0.154624 0.134494 -0.332453
-0.280636 -0.185416 -0.037116
-0.299867 0.502042 0.031487
0.336054 -0.139420 -0.417628
0.161154 -0.011645 -0.351131
0.334335 -0.107113 0.233642
-0.288391 0.693982 0.370744
-0.156819 -0.098946 -0.361019
-0.131131 -0.115705 0.366868
-0.314493 0.715876 0.031326
0.088601 -0.125005 -0.347197
-0.257587 0.057241 0.064872
-0.165621 -0.534046 0.342327
0.064957 -0.010298 0.208254
0.298581 -0.402456 -0.383583
-0.141023 -0.474091 0.313754
-0.263230 0.507979 0.098006
0.319401 -0.521360 0.396336
-0.265077 0.888194 0.200492
-0.072146 0.114061 0.371963
-0.300374 0.671882 -0.371834
0.262660 -0.099125 -0.038891
-0.266941 0.568848 -0.021397
-0.314492 0.870373 0.067264
-0.269701 0.251494 0.026484
-0.314493 0.801072 0.031892
-0.264811 0.773627 0.115865
-0.238715 -0.715660 0.326698
0.275906 -0.045377 -0.403902
0.267066 -0.171306 0.355805
-0.106508 -0.011141 -0.297678
0.373134 -0.192304 -0.189840
-0.264814 0.779973 -0.155302
-0.264808 0.761592 -0.066940
-0.223499 -0.647983 -0.297302
-0.314495 0.841377 -0.180735
-0.050239 -0.075699 -0.384016
-0.314487 0.768862 0.305739
0.288724 -0.099125 0.008196
0.300746 -0.502681 -0.352839
0.392777 -0.095519 0.159546
0.019247 -0.099125 0.174019
-0.065013 -0.010298 0.218983
-0.264809 0.818488 0.032075
-0.268437 0.493020 -0.130699
0.017740 -0.010298 0.011633
-0.262161 0.493775 -0.093612
-0.293457 0.430422 0.064794
-0.314493 0.825260 -0.119389
0.293563 -0.171968 0.347430
0.099408 -0.093295 0.392026
-0.185075 -0.087876 0.290860
0.222342 -0.036384 -0.400920
-0.211195 -0.303226 0.312487
-0.279632 0.903307 0.029774
0.096112 -0.010298 0.154653
-0.239670 -0.192131 0.168512
-0.292863 0.838538 -0.337175
-0.283728 0.869755 -0.288504
0.083212 -0.191519 -0.350449
-0.246218 0.347026 0.009625
0.308077 -0.099125 -0.119104
-0.028653 -0.005015 -0.335869
0.162982 -0.099125 -0.037264
-0.069227 -0.010298 -0.098289
-0.233718 -0.123974 0.048491
0.367165 -0.525854 0.347230
-0.232008 -0.556348 0.310944
-0.289877 0.398064 0.074670
0.386269 -0.027843 0.098643
0.060627 -0.192304 0.373693
0.011871 0.025355 0.375804
0.154768 -0.099125 -0.081476
-0.125872 0.073044 0.332003
-0.041759 -0.099125 -0.052017
0.094371 -0.010298 -0.253224
-0.185895 -0.499296 0.275893
-0.314097 0.688934 0.351399
0.381495 -0.261123 -0.404125
-0.208928 -0.392369 -0.241384
0.218260 -0.010300 0.372225
-0.223764 -0.152804 -0.323796
-0.147703 -0.117139 -0.265342
0.202590 -0.099125 -0.222977
-0.095847 0.060038 -0.335722
0.376860 -0.025361 -0.217309
0.381031 -0.149468 0.319105
-0.126264 0.167333 -0.381506
0.337495 -0.137899 0.416636
0.385523 -0.233876 -0.389472
-0.252626 -0.702742 -0.340219
-0.254839 -0.448784 -0.300168
-0.264809 0.804325 0.211388
-0.235162 0.107189 0.014192
0.116854 -0.010298 0.198606
0.228904 -0.010298 0.183069
-0.048207 0.005500 0.383809
0.016960 -0.010298 0.236668
-0.307792 0.675445 0.002568
0.031065 -0.159259 -0.391313
-0.171238 0.142712 0.329482
-0.013115 -0.010298 0.057509
-0.138401 -0.191712 -0.323298
-0.228333 0.176159 0.090119
0.136433 -0.010298 0.133055
-0.241520 0.238958 -0.100831
0.366796 -0.478734 -0.385580
0.195386 -0.010298 -0.163964
-0.293991 0.435699 0.091622
-0.251370 0.475342 0.344469
-0.206646 -0.709417 0.309109
0.328034 -0.692297 -0.356051
-0.214446 -0.099514 -0.108876
-0.179228 -0.520967 0.357568
0.329495 -0.287897 -0.408677
-0.219567 -0.101260 0.163192
-0.269456 0.902209 -0.197446
0.340365 -0.248311 0.327809
-0.204790 -0.638756 0.292803
-0.148647 0.167699 -0.380269
-0.291724 0.739578 0.300073
-0.214963 0.352428 -0.369453
-0.275242 0.295234 0.011537
0.143556 -0.099125 0.133479
0.322021 -0.363135 -0.401563
-0.111932 -0.099125 -0.172557
0.074573 -0.010298 -0.246232
-0.314492 0.829054 0.144378
-0.268512 0.461845 0.371550
0.054524 -0.010298 0.100611
0.320068 -0.010298 0.053955
-0.314494 0.747749 0.034260
-0.223157 -0.020488 0.148830
-0.210945 -0.338076 0.274715
-0.158594 0.232845 0.375778
0.394760 -0.043894 0.079410
-0.109303 -0.010298 0.021955
-0.196713 -0.189159 0.321752
-0.211161 -0.170160 -0.214114
-0.266132 0.552964 0.055061
0.327603 -0.099125 0.009477
-0.265712 -0.131031 0.236017
-0.261977 -0.637098 -0.333345
-0.286876 0.373701 0.026279
0.205868 -0.052508 -0.400002
-0.218984 -0.158996 0.224583
-0.304946 0.560819 -0.328912
0.326143 -0.190688 0.320877
-0.314490 0.868527 0.203913
0.325465 -0.142545 0.320923
-0.213508 0.197992 -0.354474
-0.273756 0.613617 -0.064522
-0.234173 -0.185945 -0.022340
0.027958 -0.010298 -0.094375
-0.144794 -0.056934 0.314871
-0.219083 -0.551085 -0.322703
-0.042112 0.079169 0.372074
0.194767 -0.030441 -0.399385
-0.314492 0.880477 0.037400
0.368874 -0.575809 0.371934
-0.300025 0.515386 0.329344
-0.185854 -0.540651 0.285131
-0.246506 -0.192304 0.137544
0.325529 -0.405459 0.327809
-0.282803 0.409758 -0.352725
0.211075 -0.110673 0.399825
-0.119773 -0.192303 -0.366846
-0.051586 -0.052667 -0.385668
0.349402 -0.010310 -0.005433
-0.281310 0.719679 0.370099
0.299650 -0.353929 0.396024
0.342189 -0.178926 0.416636
-0.274565 0.538826 0.073939
0.140095 -0.099125 0.296813
-0.252959 0.398681 -0.374465
-0.250322 0.377526 0.102026
-0.306517 0.642526 0.034893
-0.116126 -0.139869 -0.377626
-0.101023 -0.010298 -0.159038
-0.138570 -0.010298 0.201581
0.201910 -0.099451 0.333329
-0.168773 -0.066154 -0.306618
-0.238423 -0.441874 -0.322498
-0.120342 -0.010298 -0.060798
0.397430 -0.090884 0.029394
-0.224879 -0.427111 -0.330069
0.301300 -0.010298 0.277037
-0.222834 -0.585288 -0.324005
0.374394 -0.075490 0.349516
0.339659 -0.010305 -0.198535
-0.314494 0.794330 -0.194155
-0.226507 -0.761982 0.328366
-0.169198 -0.099125 0.150908
-0.156653 -0.010298 -0.144422
-0.238561 -0.077146 0.172159
0.333838 -0.130551 0.294118
0.375464 -0.664232 0.366870
-0.221321 -0.018978 0.115615
-0.265578 0.543708 0.000278
-0.227756 0.204596 -0.078507
-0.230418 -0.734860 -0.319863
0.082349 -0.099125 0.156200
-0.054674 0.049863 -0.338013
-0.201504 -0.099125 -0.144490
-0.015463 -0.010298 0.248940
0.389453 -0.029885 -0.028885
-0.194519 -0.288988 0.252450
0.128903 -0.149721 0.393955
-0.078916 0.096293 0.382097
-0.233628 -0.118925 -0.028241
0.307232 -0.579319 0.367295
-0.314491 0.907431 0.154588
-0.261841 -0.189986 0.241472
0.311742 -0.218333 -0.328816
-0.055243 -0.099125 0.006344
-0.291970 0.416666 0.083039
0.268528 -0.099125 0.232056
-0.277396 0.306342 0.031067
-0.260591 -0.192304 0.167979
-0.150342 0.197098 -0.332686
0.374313 -0.021213 -0.197016
-0.165328 -0.093777 0.321877
-0.203340 -0.453904 0.332541
-0.309185 0.892696 0.215002
-0.172366 -0.113165 -0.354000
-0.272392 -0.071208 -0.011111
0.049891 -0.010298 -0.282598
-0.118618 -0.266776 0.299088
-0.101419 -0.010298 0.078278
-0.264929 0.901007 0.049658
-0.176011 -0.127694 0.222667
0.359349 -0.268385 -0.410945
0.214715 -0.099125 0.162541
0.341441 -0.524585 0.396377
-0.170828 -0.275329 -0.299698
0.237723 -0.148476 -0.403511
-0.221987 -0.125382 0.301999
-0.059259 -0.192304 -0.374836
-0.186009 -0.015344 -0.253562
-0.264807 0.888927 0.130890
-0.083888 -0.028523 0.376499
-0.249067 -0.402643 -0.251651
-0.145871 -0.168945 -0.367410
-0.268041 0.708236 -0.369574
-0.290794 0.493550 -0.372321
-0.280420 -0.182085 -0.173572
-0.006321 0.022078 0.386140
0.333623 -0.010298 0.202964
0.238960 -0.116999 0.353883
0.348757 -0.118837 -0.084577
0.366895 -0.504642 0.375229
0.293114 -0.010298 0.018113
0.368408 -0.572358 -0.392241
0.090800 -0.016192 0.337106
0.143184 -0.099125 -0.187622
0.125523 -0.010298 0.241763
0.391392 -0.069081 -0.179339
-0.184918 -0.094672 0.331349
-0.251831 -0.092344 -0.187445
-0.233120 -0.035835 -0.187839
-0.213565 -0.556700 -0.282142
-0.289934 0.776553 0.244351
-0.162382 -0.099125 -0.137605
-0.129915 -0.116905 -0.373531
-0.008189 -0.192260 0.347259
-0.310064 0.756814 0.366224
0.349995 -0.120866 0.033377
-0.267645 0.352352 -0.346372
-0.270501 -0.446096 -0.276125
0.139103 -0.192304 0.367090
0.095744 -0.099125 -0.302971
-0.000830 -0.010298 -0.019739
-0.256841 0.435087 0.055163
-0.041818 -0.146048 0.334224
-0.147140 -0.452715 0.324173
-0.041604 -0.096569 -0.386864
-0.260522 0.073239 -0.065936
0.263247 -0.024814 -0.403197
0.362873 -0.376859 -0.400467
-0.013552 -0.010298 -0.038079
0.384054 -0.166627 0.268708
0.367366 -0.575466 0.393334
-0.172835 -0.353222 -0.282874
-0.290248 0.691275 -0.086728
0.164362 -0.010298 0.080269
-0.287172 0.648095 0.056371
-0.264923 0.820919 -0.340280
-0.170139 -0.293604 -0.271902
0.185532 -0.099125 -0.160030
-0.264807 0.850810 0.275797
-0.314497 0.856543 -0.267500
0.298581 -0.339177 -0.384333
-0.055069 -0.010298 -0.081483
0.383722 -0.067145 0.268863
0.378637 -0.248202 0.329835
-0.242452 0.416894 -0.373338
0.349238 -0.012052 0.277870
-0.224244 -0.406474 0.309367
-0.223582 0.227582 -0.373848
0.385554 -0.172690 0.414854
-0.072538 -0.101345 0.317601
-0.277653 -0.143437 -0.200107
-0.277823 0.736013 0.130908
0.026540 -0.192302 -0.377699
-0.087920 -0.002001 0.381600
-0.233603 -0.707000 -0.326839
-0.264836 0.725611 0.114337
0.354560 -0.714521 -0.359775
-0.264807 0.761924 0.340613
0.266251 -0.010298 0.198846
0.162335 -0.099125 -0.210607
-0.151281 -0.361762 0.333562
-0.264809 0.803773 -0.297894
0.307248 -0.579466 -0.365282
0.259267 -0.010298 0.122595
-0.195411 -0.339964 -0.247137
-0.285846 0.508276 0.123050
-0.267785 -0.034158 -0.092972
0.298581 -0.222445 -0.345887
-0.314493 0.816564 0.257893
-0.243616 0.272518 -0.366771
-0.030534 -0.099125 0.078101
0.209382 -0.099125 0.021063
0.153896 -0.061792 0.395060
0.300351 -0.099125 -0.186827
-0.314229 0.910988 0.086647
0.366854 -0.477563 -0.344090
-0.163882 -0.325789 0.259065
0.085943 -0.137160 0.390887
-0.156640 -0.099125 -0.103760
-0.296553 0.462277 -0.116396
-0.116001 -0.018800 0.307778
-0.264809 0.818909 -0.020340
-0.175774 -0.180250 0.339228
-0.264809 0.730800 -0.054895
-0.267031 0.862336 -0.302124
0.164140 -0.099125 0.134637
0.251922 -0.083318 0.400522
-0.262868 0.503152 -0.003915
0.324582 -0.103019 -0.287020
0.326455 -0.697193 0.358462
0.383253 -0.090287 0.274026
0.339867 -0.157350 -0.235081
-0.243110 0.323079 -0.096128
-0.264837 0.705787 0.106699
0.289140 -0.099125 -0.161129
-0.025467 -0.052603 -0.387124
-0.264808 0.794054 0.119953
-0.279317 0.319070 -0.074800
-0.173481 -0.010298 0.029553
0.158358 -0.064268 -0.397358
-0.221049 -0.571178 0.298287
-0.239843 0.303584 -0.037280
-0.193522 -0.264142 0.250032
0.026971 0.009222 0.385290
-0.239724 0.126892 -0.029219
0.208105 -0.099125 0.205314
0.387648 -0.078486 0.228211
-0.268462 0.605640 -0.001806
-0.056820 -0.010298 0.014554
-0.285248 0.673361 0.370613
0.178802 -0.010298 0.106859
0.325317 -0.266373 -0.411209
-0.294666 0.442729 -0.108930
-0.101677 0.001082 0.333933
-0.304106 0.761236 -0.156687
0.395199 -0.115889 -0.116248
-0.030864 -0.010298 0.119768
0.326668 -0.701018 -0.377259
-0.265590 0.904206 -0.061569
-0.268382 0.682122 -0.004565
-0.314484 0.699880 0.005263
-0.009392 -0.099125 -0.179646
-0.295737 0.706892 -0.370792
-0.288688 0.735887 -0.369371
0.307706 -0.336660 0.327898
-0.208647 -0.562294 0.282999
-0.301732 0.534559 -0.326415
-0.174559 -0.578538 0.303320
-0.172514 0.134226 -0.378944
0.151543 -0.099125 0.114118
-0.264810 0.862649 -0.163438
-0.111315 -0.166536 0.372800
-0.255060 0.417008 0.109854
0.066779 -0.010298 0.280291
-0.239579 -0.579432 -0.255585
0.383875 -0.245518 0.357985
0.397654 -0.081667 -0.007715
-0.281381 0.871349 0.283383
-0.233747 -0.157549 0.082470
-0.314493 0.849918 0.082493
-0.115400 0.051206 -0.382122
-0.314496 0.774762 0.125354
-0.279162 0.346084 0.098526
0.303083 -0.010298 0.106167
-0.124046 0.142138 -0.334151
0.347241 -0.158179 0.125562
-0.314493 0.872881 0.012100
-0.122826 -0.159384 -0.375811
-0.286704 0.372431 -0.088456
-0.277252 0.387727 -0.353053
-0.295323 0.693274 -0.109305
-0.012935 -0.030322 -0.387822
0.303924 -0.121453 -0.417271
-0.219564 -0.346464 -0.330128
-0.297237 0.470066 -0.092051
0.067403 -0.188944 -0.392939
0.302417 -0.262670 0.408723
-0.222502 -0.102833 -0.136335
0.320015 -0.077731 0.366595
-0.196634 -0.048918 -0.278953
0.397340 -0.157937 -0.040986
0.126344 -0.127956 0.393772
-0.272744 -0.486994 -0.274486
-0.125697 -0.010298 0.177068
0.143149 -0.099125 0.176972
-0.243161 -0.158025 -0.295942
0.082380 -0.099125 -0.286361
0.049200 -0.005885 -0.353078
0.153427 -0.099125 -0.168714
0.246083 -0.099125 0.313140
0.392899 -0.143591 -0.160350
-0.274359 -0.710385 -0.281073
-0.225591 -0.623712 -0.286329
-0.228434 0.180452 -0.045362
-0.265276 0.895630 -0.032919
-0.264809 0.782582 -0.071231
0.112537 -0.099125 -0.149152
-0.168500 -0.417522 0.273082
0.353236 -0.660250 -0.349114
-0.225465 -0.122354 0.207019
-0.044567 -0.099125 -0.234534
-0.191488 -0.309916 0.249801
-0.278319 -0.616080 -0.304014
-0.266595 0.937351 -0.143629
-0.183492 -0.010332 0.198968
0.106900 -0.191784 0.386163
0.378244 -0.192304 -0.035751
-0.233747 -0.144755 0.126279
0.348611 -0.193707 0.314063
-0.175420 -0.182304 -0.352120
0.352218 -0.423094 -0.398324
0.334725 -0.737356 -0.397278
0.333625 -0.164236 -0.296962
-0.267617 -0.467658 -0.285095
0.303271 -0.051825 0.386860
-0.314492 0.828849 0.195187
-0.257950 -0.595933 -0.327516
-0.264808 0.767691 -0.114409
-0.279390 0.727328 -0.125689
0.350288 -0.516076 -0.397262
-0.314492 0.866166 0.135259
0.042547 -0.010298 0.214487
-0.272911 0.481737 0.122669
-0.228477 0.146106 -0.036859
-0.164758 -0.099125 0.172571
0.098679 -0.015187 -0.339336
-0.218230 -0.375499 -0.230988
0.298581 -0.256570 0.343163
0.304794 -0.010298 -0.299964
0.304832 -0.541926 -0.393494
-0.032759 -0.192304 -0.369460
0.338653 -0.104691 0.146146
-0.274747 -0.758282 -0.336848
0.365687 -0.058727 0.368931
-0.314493 0.821842 -0.093390
0.387408 -0.120540 0.377069
0.047405 -0.099125 0.249877
-0.299699 0.498287 0.357431
-0.259583 0.299767 0.083295
-0.125218 0.113906 0.379523
-0.314447 0.767527 -0.283904
-0.101797 -0.155820 -0.332344
-0.233083 -0.192304 0.254809
-0.298312 0.482435 0.060756
-0.149480 -0.164390 -0.293935
-0.105450 0.073641 -0.382675
0.337524 -0.113408 -0.243677
-0.264809 0.847575 0.082544
-0.161872 -0.099125 0.128801
0.393514 -0.165775 0.147610
0.370762 -0.372195 -0.357262
0.249780 -0.010298 -0.030926
0.346439 -0.190621 0.191356
-0.152174 -0.169579 -0.269744
-0.222822 -0.538531 0.298845
0.219830 -0.161587 -0.402455
0.154711 -0.116621 0.395799
-0.146749 -0.148620 -0.273317
-0.221381 -0.034250 0.219815
0.299248 -0.467541 0.355148
-0.099738 -0.099125 0.203839
0.301629 -0.457664 0.331387
-0.262649 0.173184 0.072302
-0.117371 -0.117747 0.308633
0.340780 -0.104076 -0.040414
-0.085164 -0.099125 -0.081822
0.385559 -0.210994 -0.415841
-0.271009 0.590377 0.347890
-0.075750 -0.048480 -0.349994
0.247798 -0.010298 -0.059798
-0.269480 0.530712 0.097308
-0.023404 -0.010298 -0.181326
0.387408 -0.139765 0.402640
0.115330 -0.099125 -0.026276
0.282730 -0.010298 -0.259438
-0.306881 0.666572 0.027619
-0.266857 0.686864 0.039085
-0.211229 -0.110690 0.311446
-0.314494 0.917220 -0.147212
0.167467 -0.099125 -0.120688
0.275797 -0.010298 0.057009
-0.174012 -0.475958 0.280701
-0.314493 0.744438 0.058059
-0.082629 -0.099125 0.069785
-0.021047 -0.099125 -0.095795
0.071771 -0.099125 -0.013382
0.231492 -0.055570 -0.401430
-0.215120 -0.590160 0.292039
0.013228 -0.099125 0.127686
-0.268182 0.597160 0.041259
-0.250786 -0.043058 0.115818
0.316999 -0.648962 0.394953
0.233491 -0.099125 0.132323
-0.130797 -0.192304 0.346624
-0.175092 -0.099125 0.087530
-0.262033 -0.093146 -0.210204
0.385095 -0.747569 -0.411006
-0.264809 0.847092 -0.039178
0.174466 -0.189944 -0.355024
0.080626 -0.192304 0.367063
0.118598 -0.103662 0.393218
-0.231359 0.045774 0.068337
0.014399 -0.099125 0.217440
0.253095 -0.047815 -0.402632
-0.090715 0.114601 0.381440
-0.015068 -0.186310 -0.387621
-0.269955 0.693159 -0.322551
0.273151 -0.010298 0.252955
0.130208 -0.010298 -0.075317
0.298581 -0.359124 0.353546
-0.176138 0.123091 0.333754
0.155510 -0.099125 0.245961
0.303100 -0.073562 0.393002
0.273969 -0.099125 -0.083931
-0.262465 0.331133 0.095768
-0.230537 0.399856 -0.362482
-0.121188 -0.054278 0.325982
-0.280314 -0.097450 -0.109233
-0.264810 0.892728 -0.101333
-0.313339 0.659683 -0.361188
0.391435 -0.106184 0.181257
-0.006175 -0.010298 -0.060769
0.310004 -0.484534 0.329125
-0.314492 0.794573 0.119749
-0.264961 0.225066 0.089203
0.267833 -0.010298 -0.132432
-0.216598 -0.684766 0.364104
-0.243249 -0.724765 -0.332872
-0.272390 -0.071136 0.078773
0.217655 -0.018082 0.398443
-0.247108 0.457117 -0.354237
0.186107 -0.189162 0.397138
-0.313634 0.778366 0.172258
-0.296015 0.536735 0.073922
-0.167524 0.194431 0.377168
-0.004950 -0.010298 0.134930
0.301005 -0.475956 -0.333644
0.394153 -0.163344 -0.136325
-0.125062 0.040163 0.379272
