-0.154760 -0.893208 0.274830
0.243213 0.577747 0.079680
0.083932 -0.858785 -0.044281
0.095069 -0.887783 -0.002146
-0.156724 -0.853743 -0.098538
0.162717 0.674895 0.053746
-0.140200 -0.310957 -0.011415
-0.144419 -0.486193 0.014545
-0.134310 -0.054183 -0.012023
-0.146621 -0.779086 -0.009645
-0.085575 0.729396 0.016477
-0.154846 -0.885416 0.121406
-0.074452 -0.886862 -0.058171
-0.109399 0.189121 0.016482
-0.086898 -0.472078 0.014974
0.115257 0.658409 0.056947
-0.145598 0.153769 0.000100
0.083527 -0.884389 -0.043122
-0.372861 -0.840794 -0.030925
-0.276293 -0.871790 0.041959
-0.140578 0.478024 0.015470
0.276547 0.529907 -0.042687
-0.246432 -0.840794 0.010837
-0.127968 -0.791356 0.016482
-0.127337 -0.687066 0.016482
-0.113548 -0.320302 -0.012032
-0.284493 -0.840794 0.021800
-0.245903 -0.887317 -0.015768
-0.108691 0.057813 0.016482
0.171531 0.507046 0.100900
-0.149484 0.660086 -0.010105
-0.171729 -0.843026 -0.043052
-0.083350 -0.141675 0.003173
-0.085276 0.621218 0.011530
-0.125326 -0.252601 0.016482
0.229363 0.660813 0.033593
-0.132321 -0.712607 -0.012032
0.095498 0.490642 0.071601
-0.141726 0.101590 0.015167
-0.084702 -0.254621 -0.007666
0.218528 0.631939 -0.066522
0.213202 0.515522 0.105957
-0.060739 0.676329 -0.006004
-0.070484 -0.867107 0.116272
-0.129801 -0.887317 0.110289
-0.116359 -0.007440 0.016482
-0.083350 0.313023 0.006618
-0.143039 0.306122 0.012265
-0.313376 -0.884415 -0.043099
-0.201090 0.719801 0.006378
0.174950 0.527014 0.098405
-0.121737 0.527231 0.016482
0.280199 0.512006 0.020336
-0.136590 -0.887317 0.005736
-0.084502 -0.218981 0.009653
-0.089175 -0.916617 0.276893
0.155452 0.463545 -0.107688
-0.124851 -0.695313 -0.012032
-0.116839 -0.289807 -0.012032
-0.015531 -0.873399 -0.044281
0.139035 0.674895 0.015965
0.238070 0.745291 0.016482
-0.127842 0.601381 -0.012032
0.098235 0.478897 0.059162
0.205896 0.751184 0.016482
0.177126 0.575195 -0.095402
0.095473 0.602974 0.039203
0.278519 0.471335 -0.035138
0.179747 0.499371 -0.007732
-0.093174 -0.688878 0.016467
0.116769 0.560614 0.063742
-0.036196 -0.863174 -0.044281
0.254169 0.534366 -0.073477
-0.092189 -0.887317 -0.042296
-0.331888 -0.840794 0.014538
0.111632 0.649332 0.023414
-0.069708 -0.854153 0.060824
0.163701 0.659547 0.063499
0.216513 0.633170 0.085945
0.098968 -0.889184 0.009440
-0.075013 -0.887075 -0.119959
-0.263819 0.662712 -0.012032
-0.102813 0.299219 0.016482
0.199333 0.663706 -0.080749
-0.026963 -0.878349 -0.044165
-0.315387 -0.887320 0.002755
-0.118241 -0.388028 0.016482
-0.084945 -0.281709 -0.008833
0.120546 -0.910996 -0.043592
-0.061465 -0.853313 -0.049728
-0.196331 -0.887317 0.015087
-0.114778 0.570464 0.016482
-0.111863 0.072339 -0.012032
-0.116117 0.255362 -0.012032
0.130281 0.469565 0.093000
-0.085400 -0.840794 0.035048
-0.135460 0.109052 -0.012013
-0.151147 -0.886295 0.097105
-0.088733 -0.840794 -0.133185
-0.124289 -0.425225 0.016482
0.306778 0.763422 0.002000
-0.155611 -0.884460 0.161489
0.107740 0.701308 -0.001080
-0.086931 -0.753041 -0.010134
0.124766 0.524808 0.091812
-0.112709 -0.686478 0.016482
-0.086359 -0.376451 -0.009850
-0.240448 0.655996 0.016104
-0.117601 0.502226 -0.012032
-0.268256 0.710657 0.006299
0.164566 0.578895 -0.093156
-0.141240 -0.840794 0.102998
0.147765 0.634151 0.085493
-0.119485 -0.254355 -0.012032
0.189432 0.566965 -0.084042
-0.040671 -0.887317 0.019684
-0.144809 -0.285091 0.011429
0.165139 0.636507 -0.084684
-0.084185 -0.588589 0.008883
-0.342944 -0.915531 -0.031662
-0.094863 0.023493 -0.012023
0.219978 0.478823 -0.090398
-0.101457 -0.588649 0.016482
0.189067 0.473351 -0.110192
-0.092860 0.434690 0.016466
0.161637 0.644048 0.000994
0.077139 0.508748 0.028979
0.001687 0.703331 0.016481
0.021199 -0.877293 0.041885
-0.072842 -0.885309 0.179248
0.253849 0.571805 0.057152
-0.161221 -0.853450 0.046658
0.118973 0.767705 0.010167
-0.155417 -0.919069 -0.237891
0.105256 0.647197 0.045356
0.259866 0.519674 -0.053182
-0.130031 0.740908 0.016482
-0.145361 0.257022 0.004775
0.182898 0.522585 -0.091305
-0.086967 -0.354276 -0.010152
0.177001 0.593622 -0.080119
-0.092115 -0.840794 -0.233619
-0.251957 -0.887317 0.027098
0.188949 0.674914 0.037291
0.166264 0.561899 0.101012
-0.119919 -0.274696 -0.012032
-0.044133 0.678784 0.009399
0.072452 -0.841466 -0.041417
0.185841 0.674895 -0.040124
0.150435 -0.923887 -0.015782
-0.139722 0.054429 0.016066
-0.087284 0.515791 -0.010310
0.131276 -0.894993 -0.044281
-0.074463 -0.901880 0.276557
0.215715 0.674895 -0.006520
0.270230 0.630148 -0.018349
0.165191 -0.871072 0.029278
-0.084699 0.286839 0.010131
-0.130713 -0.558733 0.016482
-0.159106 -0.887317 0.023373
-0.083628 -0.887317 0.197967
-0.153465 -0.841461 0.052578
0.271836 0.608619 -0.024846
-0.311225 -0.840794 0.004505
0.143002 -0.874981 -0.044281
-0.141993 -0.597987 0.015639
0.162840 0.529958 0.106245
-0.101143 -0.843064 -0.277451
0.203057 0.601757 0.002684
-0.098129 -0.170298 -0.012031
0.199548 0.674895 -0.060482
-0.147198 -0.543938 0.006255
-0.083500 0.222418 -0.001881
-0.097205 0.535324 -0.012028
-0.087395 -0.611376 0.015168
0.240314 0.512162 -0.073842
0.242097 0.673999 0.053631
-0.216192 0.676065 -0.012032
-0.146743 -0.345545 0.002059
0.227695 0.560315 -0.073845
-0.142974 -0.200213 -0.010064
-0.139308 -0.769983 0.016373
-0.099130 -0.398143 -0.012032
-0.148818 -0.841128 -0.267263
-0.165104 0.711084 -0.012032
0.208454 0.605990 0.083544
-0.103329 -0.678899 0.016482
0.098894 0.661257 -0.017630
0.075296 0.752930 -0.011986
-0.133982 -0.887317 -0.035939
-0.156724 -0.861462 0.221145
0.009919 -0.840986 -0.036171
-0.137613 -0.887317 -0.177375
-0.144129 -0.887317 -0.151133
-0.144719 -0.840794 -0.245795
0.144385 0.539495 0.088397
0.236576 0.611382 0.067102
-0.334114 -0.869964 -0.044281
-0.107551 -0.840794 -0.086101
0.165189 -0.910794 -0.005904
-0.284691 0.666020 0.016482
-0.361164 -0.923889 -0.029811
-0.127130 -0.840794 -0.087211
0.247987 0.657846 -0.010920
0.178920 0.580960 -0.019092
0.089879 -0.887317 0.016750
0.073975 0.503484 0.013920
0.237751 0.525866 0.093267
-0.252266 -0.869044 -0.044281
-0.099356 0.469210 0.016482
-0.106112 -0.887317 -0.064533
0.062904 -0.840879 -0.034541
-0.117352 0.405404 -0.012032
-0.104971 -0.739653 0.016482
-0.100010 0.623380 -0.012032
0.080348 -0.840794 -0.016308
-0.084903 -0.697691 -0.008628
0.089700 0.594105 -0.021120
-0.154590 -0.889438 -0.277212
0.097896 0.696735 0.004124
-0.147275 -0.620777 -0.002588
-0.156699 -0.876049 0.184290
-0.070484 -0.856094 0.098341
-0.132554 -0.845533 0.276156
0.292215 0.493473 0.002606
0.029594 -0.840794 -0.019083
-0.302362 -0.887317 0.008372
0.120156 0.702378 0.001593
-0.133679 -0.515612 -0.012030
0.240860 0.560339 -0.078625
-0.128478 -0.840794 -0.246803
-0.138290 0.174101 -0.011997
0.185109 0.717965 0.015638
-0.102268 -0.698001 0.016482
0.121783 -0.898095 0.041828
-0.228057 -0.843349 0.041070
0.264265 0.502218 -0.051652
0.165191 -0.864933 -0.016698
-0.152091 0.726436 0.013117
0.246387 0.674895 -0.012686
-0.136527 -0.694600 -0.012030
0.136307 0.739175 -0.012032
-0.084568 -0.188586 0.009813
-0.088110 -0.424028 0.015448
-0.129651 0.539840 -0.012032
0.232654 0.506621 0.099004
-0.326272 -0.888604 0.006539
0.205218 0.667176 0.084241
0.123395 0.638277 0.053916
-0.120434 -0.584335 0.016482
-0.152477 0.662713 0.015560
-0.231240 -0.840794 -0.004091
-0.136686 -0.680464 0.016479
0.141753 -0.923889 -0.003218
-0.113352 -0.026611 -0.012032
-0.070441 -0.840838 -0.038354
0.248620 0.475752 0.082896
0.222382 0.784896 -0.002591
0.084939 0.763209 -0.003449
-0.368518 -0.840794 0.022969
-0.203202 0.675806 -0.012032
-0.145457 0.141745 -0.001922
0.266775 0.560135 -0.028973
-0.128294 -0.069161 -0.012032
0.019369 -0.886474 -0.041052
-0.074838 -0.908994 0.227688
0.115129 -0.848032 -0.043914
0.096606 0.634458 -0.023279
-0.156709 -0.894440 -0.241015
-0.246850 0.712776 0.012912
0.179857 0.603540 0.088118
-0.085707 0.186789 0.012575
0.132678 0.582397 0.087002
0.280915 0.543488 0.033493
0.106666 0.596449 -0.054710
-0.341785 -0.865316 0.041959
-0.093929 -0.212395 -0.012020
-0.123200 -0.038162 0.016482
-0.083386 -0.460134 -0.001334
0.220836 0.492889 -0.087814
-0.132077 -0.229757 0.016479
0.135387 0.543181 0.095069
-0.091241 0.672180 -0.012026
-0.194031 0.672024 0.016477
0.153201 0.661088 0.083589
0.165278 0.501587 -0.002535
-0.070484 -0.869226 0.201525
0.201677 0.587612 0.097598
-0.125307 0.599614 0.016482
0.238889 0.505158 -0.090122
0.267506 0.792091 0.002175
0.216204 0.604584 -0.084664
-0.096346 -0.923889 0.248271
0.127201 -0.923888 0.026853
0.177527 0.669892 0.086938
-0.156713 -0.875699 0.129402
-0.090025 0.176658 0.016196
-0.102205 -0.439028 0.016482
-0.296701 0.705377 -0.009966
-0.096282 0.320290 0.016475
-0.137128 -0.552217 -0.012028
0.179376 0.515421 0.100514
0.168004 0.530569 -0.033267
-0.155528 -0.884567 0.065108
-0.112603 -0.062292 0.016482
0.002577 0.737659 -0.012025
-0.152713 -0.855550 0.275555
-0.144508 -0.923868 -0.241505
-0.070484 -0.863782 0.144892
0.081469 0.701736 -0.010638
-0.156377 -0.883481 0.205761
-0.080412 -0.840870 0.092263
-0.147742 -0.780955 0.005198
0.187618 0.463629 -0.101945
-0.070484 -0.860113 0.072091
0.273039 0.485420 0.067694
-0.131192 0.760927 -0.012026
-0.099353 -0.887317 -0.052253
0.089964 0.564703 0.040878
-0.156724 -0.859520 0.161848
-0.123136 0.721208 -0.012032
0.225792 0.517290 0.100030
0.153252 0.628946 -0.068894
0.279337 0.481312 -0.053845
0.280493 0.506957 -0.012700
0.117771 -0.921299 -0.011533
-0.083350 0.496572 0.001573
-0.312723 0.649658 0.012298
-0.119296 0.428260 -0.012032
-0.117962 0.033512 0.016482
-0.107554 -0.162580 -0.012032
-0.080628 -0.840863 -0.143038
-0.213391 0.654494 -0.002020
0.216118 0.540108 0.023353
-0.146568 -0.546601 -0.007920
-0.146594 -0.304803 -0.001478
0.174661 0.640870 0.091340
-0.156724 -0.872470 0.238776
0.117898 0.593162 0.074061
0.164867 0.540013 0.095166
-0.094611 0.425060 -0.012022
-0.093224 0.026414 0.016467
-0.113218 -0.483301 -0.012032
0.100265 0.547109 -0.033220
-0.095825 -0.887317 -0.114137
0.012621 0.686998 0.004218
0.144257 0.744706 0.016482
-0.273555 -0.840794 0.017163
-0.392399 -0.863410 0.015162
0.256269 0.640752 -0.024219
0.215061 0.530460 -0.096765
0.107605 0.644676 0.000515
-0.277919 0.692638 0.016482
0.272158 0.541021 -0.049064
0.165191 -0.867078 -0.004006
0.283236 0.478844 0.024794
-0.079989 0.701584 -0.012032
0.211332 0.658399 -0.054959
0.135480 0.612381 0.083283
-0.140215 -0.915751 0.277485
0.166706 0.660462 -0.032067
0.100631 0.520908 -0.042609
-0.122512 -0.348667 -0.012032
-0.134694 -0.923009 -0.234479
-0.112792 0.554364 -0.012032
-0.392399 -0.892843 0.016884
0.098750 0.588030 0.013729
0.159962 0.722534 0.016481
0.115222 -0.907739 0.037552
0.217537 0.752678 0.016482
-0.022714 -0.887317 0.029012
-0.377160 -0.923555 0.036144
0.004331 -0.840794 -0.018048
-0.072459 -0.842866 0.214279
-0.114559 -0.669747 0.016482
-0.124841 -0.920049 0.230180
-0.089910 0.287033 -0.011618
0.273529 0.625644 0.001394
-0.308641 0.646173 -0.001368
-0.156710 -0.851214 0.198523
-0.112477 -0.840794 0.260884
-0.145610 -0.332823 -0.007604
0.095899 0.653416 -0.004917
0.104284 0.630655 0.005151
0.165191 -0.857899 0.005252
0.134206 -0.848202 -0.043932
0.279332 0.506393 -0.045734
-0.150891 -0.831991 -0.002225
-0.099878 -0.647283 -0.012032
0.271601 0.730069 0.015672
-0.118192 0.340467 0.016482
0.065756 -0.851750 -0.044281
-0.273719 -0.841055 0.034901
0.280802 0.533374 -0.032222
0.113725 0.482252 0.077225
-0.114593 0.764414 -0.012032
0.185186 0.542795 -0.100387
0.258654 0.581938 -0.038868
0.170643 0.529998 -0.101322
0.051411 -0.840794 0.003290
-0.087961 0.545980 -0.010647
-0.156404 -0.914660 0.233506
0.238657 0.759376 -0.012032
0.022381 -0.840794 -0.029726
0.055305 -0.840794 0.014583
-0.137672 0.504133 -0.011969
0.185468 0.510087 -0.092821
-0.136718 0.646391 -0.011962
-0.299290 0.648231 -0.011625
-0.083350 0.507500 0.005468
-0.377273 -0.850751 0.041890
-0.228050 0.679552 -0.012032
0.100006 0.586865 -0.013605
-0.145502 0.036813 -0.002831
-0.078733 -0.909297 -0.229870
-0.154488 -0.877086 -0.277248
-0.086671 -0.840794 -0.207352
-0.117674 -0.305624 -0.012032
-0.100686 -0.840794 0.251137
-0.100893 -0.611270 0.016482
-0.049564 -0.860539 0.041962
0.195926 0.622501 -0.075241
0.123845 0.587205 -0.056887
-0.141913 0.752730 -0.009695
0.285061 0.730759 -0.006061
0.238415 0.627440 -0.053629
0.032772 0.700237 -0.012016
0.243829 0.729123 0.016380
0.184463 0.742957 -0.012032
0.171521 0.674895 -0.054589
-0.070484 -0.864977 -0.084173
-0.125362 0.024188 -0.012032
-0.110001 0.567067 -0.012032
0.089723 0.511381 -0.019361
-0.190949 -0.887317 -0.009161
0.109692 0.461444 0.085716
-0.293323 -0.878696 0.041829
-0.102267 -0.790443 0.016482
0.176309 0.777746 0.001916
-0.142870 0.466960 0.011925
0.265836 0.556053 0.041811
0.145034 0.583832 -0.086543
-0.141864 -0.063527 -0.010471
-0.245479 -0.887317 -0.032945
0.244491 0.493309 0.082966
0.131783 0.492978 -0.095279
0.137635 0.501992 0.091198
-0.070484 -0.874783 -0.076325
-0.227885 0.692300 0.016482
-0.086287 -0.718314 0.013983
0.215054 0.674895 0.005197
-0.080503 -0.852326 0.277410
-0.274850 -0.887317 0.015145
0.113499 0.486228 -0.067550
0.148774 -0.896601 -0.044281
-0.128416 0.170337 0.016482
0.162926 -0.857863 -0.041639
0.154645 0.538595 0.103172
-0.104412 -0.409502 -0.012032
-0.062583 0.716618 0.016482
0.049885 0.738473 -0.012032
0.104577 0.711566 -0.011990
0.245350 0.597980 0.061481
0.105143 0.469803 -0.062727
-0.100333 -0.837593 -0.017332
0.102252 0.660267 0.033951
0.119677 0.564698 -0.057486
0.265348 0.735063 -0.011936
-0.109860 -0.264864 -0.012032
0.061594 0.736086 0.016482
-0.131267 0.254391 -0.012029
0.150376 0.585447 0.093901
0.070481 0.482548 -0.002932
-0.092949 -0.897372 0.222386
0.240238 0.660546 0.006628
0.233186 0.487768 0.091703
-0.114192 -0.192206 -0.012032
-0.129282 -0.597590 0.016482
0.108089 0.473816 -0.082528
-0.392399 -0.882274 -0.021312
0.233068 0.646073 0.074803
0.290475 0.500815 0.016855
0.206573 0.737810 0.016482
-0.120552 -0.840794 0.116860
-0.098853 -0.512320 0.016482
0.133025 -0.923688 -0.036431
-0.144709 0.541317 0.000436
0.273545 0.528627 0.033825
-0.129805 0.516472 0.016482
0.165191 -0.886749 -0.020063
0.139392 0.475293 -0.087445
0.161102 0.659358 0.028259
0.161839 -0.916975 0.039312
0.164452 -0.889305 0.034744
-0.130353 -0.887317 0.029061
-0.381074 -0.869162 0.041927
0.245317 0.545052 -0.078155
0.128660 0.766343 -0.010869
0.219962 0.538698 -0.080937
-0.090008 0.234198 -0.011667
0.089470 0.594636 0.025818
0.262861 0.462172 0.076815
0.202364 0.713272 0.006661
-0.146654 -0.600255 -0.009101
0.161064 0.492331 -0.105487
-0.143071 0.064561 -0.009707
-0.128498 0.098702 -0.012032
-0.094879 0.381067 0.016472
-0.147291 -0.887211 0.183374
-0.156724 -0.855365 -0.224846
0.163226 0.676489 -0.015333
-0.084635 -0.887317 -0.187222
0.092241 0.475598 -0.041002
0.124296 -0.841128 -0.038338
-0.356375 -0.902113 -0.044281
-0.082373 -0.887317 0.030001
-0.103397 -0.397813 0.016482
-0.107983 0.445737 0.016482
-0.392399 -0.856279 -0.004483
-0.128842 0.289511 0.016482
0.160287 0.624698 0.002898
-0.142847 -0.899538 -0.226586
0.234860 0.666634 0.069222
-0.112377 -0.840794 0.246791
-0.058881 -0.840794 -0.019924
-0.159339 -0.876009 -0.053099
-0.156724 -0.866202 0.135874
0.247908 0.524533 -0.079924
0.092098 0.531868 0.056803
0.245622 0.633499 -0.044295
0.262926 0.490878 0.079663
-0.147289 -0.866134 0.277477
-0.121140 -0.450394 -0.012032
-0.101712 0.770814 0.016482
-0.143416 -0.642347 0.015319
0.163322 -0.843841 0.005762
-0.377366 -0.923889 0.023887
-0.204338 0.714041 0.015811
-0.291247 -0.887317 0.019876
-0.260668 0.681557 -0.012032
-0.202166 -0.840794 -0.017773
-0.088644 0.146902 -0.010988
-0.123582 -0.450246 0.016482
0.190540 0.634603 0.021740
-0.108050 -0.887317 -0.007700
-0.094352 -0.840794 0.213260
-0.152413 -0.839899 0.025661
-0.128848 -0.205162 -0.012032
0.133081 0.658099 -0.067804
-0.147011 -0.680364 -0.008288
-0.102977 -0.312642 -0.012032
0.157150 0.628344 0.090239
-0.144265 -0.887317 0.088009
-0.353780 -0.840794 0.015665
-0.057252 -0.843866 -0.043962
-0.118856 -0.891623 0.277634
0.251080 0.603873 -0.061338
0.201487 0.625361 0.010760
-0.392399 -0.873031 0.027750
0.142793 0.514723 0.091560
0.080910 0.533190 0.029370
0.230448 0.461598 -0.097770
-0.094031 -0.887317 -0.136183
0.224486 0.671505 0.074185
0.127295 -0.841011 0.034223
-0.039400 -0.881254 0.041726
-0.250861 -0.857465 -0.044281
0.136475 -0.923889 0.009206
0.159494 0.674895 0.065108
0.272027 0.551423 0.028599
0.126075 0.475441 -0.079978
-0.128584 -0.163689 -0.012032
0.081398 0.558400 -0.001052
-0.103004 -0.903362 -0.227987
-0.123468 -0.226213 -0.012032
-0.311126 0.670415 -0.012029
-0.093413 -0.236819 -0.012019
-0.211606 0.710517 -0.011972
-0.338300 -0.840794 0.002830
0.131274 0.558552 -0.084152
0.206367 0.499850 -0.103956
0.303093 0.771731 0.014448
0.149776 0.624548 0.076933
-0.268052 -0.885891 0.039446
-0.143161 -0.887317 0.150974
-0.121903 -0.887317 -0.167507
0.241176 0.542325 0.076389
0.114454 0.618497 -0.059155
0.239354 0.536389 -0.084152
-0.141493 -0.840794 -0.104458
-0.116340 0.388481 0.016482
-0.083350 0.261664 0.002361
-0.126654 -0.887317 -0.199995
0.162311 -0.919213 -0.029393
0.076032 0.516783 -0.007840
-0.130035 -0.217164 0.016482
-0.120127 -0.906664 0.226875
0.149705 0.486480 -0.090296
-0.141940 -0.887317 -0.096690
0.218379 0.601617 0.090208
0.259492 0.609586 -0.027612
-0.036816 0.682758 -0.010565
-0.009733 0.747916 -0.006366
0.286944 0.775164 0.016482
-0.352209 -0.860503 0.041959
-0.083122 -0.840794 -0.196064
0.263366 0.484971 -0.057020
0.203788 0.605678 -0.088483
-0.132775 -0.458261 0.016480
-0.119074 -0.181067 -0.012032
-0.083350 0.454690 0.002568
0.155670 0.508069 -0.002701
0.233183 0.537722 0.093581
-0.144252 -0.237339 0.012471
-0.070484 -0.852038 -0.160640
-0.156724 -0.851964 0.096161
0.018744 0.732564 0.016482
-0.138539 -0.013717 -0.012009
-0.108364 0.113712 -0.012032
-0.275165 0.701427 -0.011947
0.240021 0.591161 -0.073669
0.165191 -0.881034 0.023139
0.102390 0.598740 -0.016316
-0.059874 0.739332 0.011269
-0.145430 0.030909 0.007941
0.162199 0.601814 0.011739
0.142710 0.528400 -0.000218
-0.126646 -0.001976 0.016482
-0.070484 -0.857200 -0.127616
-0.126532 -0.556598 -0.012032
0.187745 0.637456 -0.073912
0.039669 0.729760 -0.012032
0.220593 0.472956 -0.103677
0.236769 0.660076 -0.025809
-0.056915 -0.887317 -0.012915
0.071405 0.761177 -0.002115
0.283337 0.537230 -0.020175
-0.130534 -0.431677 -0.012032
0.221828 0.539457 0.098680
-0.265481 -0.840794 -0.011794
-0.320793 -0.851038 0.041922
0.215841 0.664804 -0.075264
0.268011 0.532037 -0.057291
-0.126725 -0.570208 0.016482
-0.140276 0.135429 -0.011186
0.123212 0.546499 0.073091
-0.153056 0.715001 -0.012014
0.096567 0.658364 0.011460
0.069529 0.462211 -0.001653
-0.050119 -0.885189 0.040079
-0.124923 -0.887317 0.055706
-0.101292 0.586470 0.016482
0.071882 -0.840794 -0.007524
-0.288463 0.659330 -0.012032
-0.035583 0.679557 0.000534
-0.069708 0.727623 0.016480
-0.107146 0.613191 0.016482
-0.113097 -0.134756 -0.012032
-0.059414 -0.840794 -0.032639
-0.090565 -0.840794 0.075349
-0.180794 0.707876 -0.012032
-0.112948 -0.923889 0.251825
-0.012604 0.729570 -0.012032
-0.116120 -0.863824 -0.279956
0.095187 0.562333 0.053062
0.243654 0.619895 0.058324
0.121367 0.622516 -0.046400
0.092068 0.629349 -0.002829
-0.103545 -0.887317 -0.092150
-0.276877 0.658020 -0.012032
0.188341 0.489618 0.105289
-0.074986 -0.887074 0.119693
-0.144945 -0.619286 0.014896
-0.300520 0.647337 0.015503
-0.155366 -0.885518 -0.058369
-0.097197 0.720696 -0.012032
-0.110972 -0.889040 -0.279956
-0.144080 0.215740 -0.007319
-0.177883 -0.840794 0.024409
0.157282 0.550333 0.101640
0.092093 0.607892 0.028328
-0.347775 -0.869882 -0.044281
-0.152390 -0.886000 -0.168282
-0.105563 -0.816858 -0.012032
-0.142466 0.299499 -0.009790
-0.123217 0.278384 0.016482
-0.083350 -0.089213 0.002298
-0.086572 -0.111172 0.014673
-0.207787 -0.846263 -0.043719
-0.156724 -0.871354 0.197618
-0.002220 -0.840794 0.013081
-0.100742 0.257103 0.016482
-0.134448 -0.840794 -0.036332
-0.154839 -0.885418 0.082234
-0.090756 -0.450686 0.016461
-0.032033 0.736359 -0.012025
-0.008214 0.732650 0.016482
0.251663 0.546701 0.078763
0.226044 0.660829 -0.011399
0.255625 0.529497 0.078653
-0.087298 -0.812785 -0.010317
-0.039772 -0.840794 0.010246
-0.118206 -0.728412 -0.012032
-0.259894 -0.887317 -0.003694
-0.023617 -0.864960 -0.044281
0.241554 0.674895 0.000796
0.115381 -0.912655 0.009350
0.028870 -0.864647 -0.044281
-0.085596 0.598109 0.012306
-0.220745 -0.840794 -0.016464
0.213406 0.773024 0.016448
0.028330 0.714771 0.016482
-0.143593 -0.887317 -0.003691
0.162285 0.597600 -0.089971
0.182463 0.495904 0.113563
0.200120 0.656036 0.023493
0.174241 0.593116 0.089477
-0.116821 0.200923 -0.012032
-0.140214 -0.474846 0.016064
0.120304 0.462401 0.096732
-0.117894 -0.720652 0.016482
-0.329171 -0.889640 -0.013499
-0.078996 0.673873 0.014952
-0.114611 0.243318 -0.012032
-0.111030 -0.229627 -0.012032
-0.145556 0.172257 -0.000180
-0.107746 -0.558620 -0.012032
-0.096815 -0.623615 -0.012027
-0.109233 0.072489 0.016482
-0.174898 0.722170 0.012215
0.152450 -0.853347 -0.044275
-0.379988 -0.923878 -0.000211
-0.082716 -0.887317 0.185697
-0.076137 -0.841013 0.252961
-0.102902 -0.467013 0.016482
0.256507 0.609644 0.043481
0.173061 0.632910 0.022120
-0.325331 -0.840794 0.001579
-0.128092 -0.775227 0.016482
-0.062578 -0.858677 0.048953
0.116826 0.514647 -0.065078
0.109018 -0.840794 -0.007724
0.225392 0.655512 -0.051956
-0.144606 0.373386 0.008066
-0.113929 -0.731670 0.016482
0.187871 0.692656 0.013440
-0.377661 -0.861701 -0.044281
0.205031 0.561576 -0.095015
-0.271394 -0.872623 -0.044281
-0.367686 -0.921856 -0.041764
-0.141941 0.437222 0.014392
-0.070484 -0.853568 -0.223428
-0.144223 -0.897678 0.222676
-0.118377 0.288168 -0.012032
-0.116894 -0.589568 -0.012032
-0.327120 -0.888907 0.024749
-0.298230 0.672851 -0.012032
-0.205730 0.699407 -0.012032
-0.226880 0.657846 0.016185
-0.128478 -0.887317 0.044096
0.186919 0.725400 -0.012025
0.260636 0.613905 0.031783
0.220817 0.781779 0.014871
-0.117348 -0.923882 0.264260
-0.083636 -0.840794 0.242328
-0.083350 0.420560 0.002531
-0.126767 -0.240488 0.016482
-0.145709 0.105196 0.004650
0.249412 0.654244 -0.021939
0.264051 0.666368 0.025981
-0.139698 -0.138087 0.016130
-0.083350 -0.522780 0.002879
0.181282 0.755459 -0.012032
0.295318 0.463042 -0.007150
0.181406 0.564747 -0.097447
-0.106705 -0.887317 0.031657
0.085079 0.462407 -0.037875
0.182132 0.634635 -0.018013
0.133077 0.614522 -0.075740
0.088809 0.609318 0.001782
0.221710 0.530828 0.090343
0.084252 0.506119 -0.043580
0.302587 0.776844 0.003252
-0.123327 -0.645495 0.016482
0.158030 0.615779 0.092416
0.123535 0.551178 -0.063670
-0.103472 -0.142571 0.016482
-0.123766 -0.840794 -0.173211
0.219068 0.633035 -0.078986
-0.131964 -0.443594 -0.012031
0.165191 -0.893389 0.011924
-0.120923 -0.657835 0.016482
0.093870 -0.840794 0.005972
0.014466 -0.866486 -0.044281
0.238945 0.590317 0.069080
0.208391 0.483878 0.102203
-0.104680 -0.887317 0.007060
0.205826 0.781943 -0.003410
0.047974 0.692654 -0.003411
-0.152001 -0.887317 -0.014732
0.243002 0.577493 -0.059301
0.116285 0.506994 0.088820
0.220013 0.544134 0.011990
-0.144793 -0.391379 0.012378
0.249967 0.652940 0.057574
0.165191 -0.877887 -0.011964
-0.012059 -0.868658 0.041959
-0.085589 -0.036743 0.012290
0.102133 0.482889 0.081514
-0.071045 -0.848104 0.139738
-0.085609 -0.460485 0.012338
0.144368 0.660638 0.047127
-0.156724 -0.863774 -0.133982
0.133287 0.552379 -0.071328
-0.116029 -0.887317 -0.093385
0.145446 0.532865 -0.012757
-0.098041 0.602852 0.016480
0.112737 0.559070 -0.069964
-0.216742 -0.887317 0.000394
0.152136 -0.867336 -0.044275
-0.131015 0.636217 -0.012030
-0.146974 -0.678917 0.011089
0.177137 0.532925 0.042954
-0.070506 -0.875839 -0.173119
0.220119 0.471433 0.109785
0.274483 0.609779 -0.011065
-0.070484 -0.879081 0.251829
0.126323 0.464514 -0.096782
-0.156724 -0.871938 0.158179
-0.156724 -0.860896 0.190150
0.123319 0.723469 0.016482
0.130382 0.473966 0.103844
-0.089268 -0.014965 -0.011298
0.044213 -0.841128 -0.038336
0.171696 0.619651 0.021991
0.178756 0.567971 -0.023736
-0.100294 -0.087766 -0.012032
-0.151645 -0.841565 -0.227706
0.280801 0.576983 -0.001203
-0.145384 -0.250193 0.009724
-0.141960 0.458821 -0.009948
0.066357 0.700021 -0.011093
0.166225 0.665048 0.086621
-0.070696 -0.850138 0.199492
-0.073469 -0.887317 0.017282
-0.144828 0.116838 0.008914
-0.124830 -0.658763 -0.012032
-0.122197 -0.887317 0.094184
0.291727 0.488049 -0.011095
-0.084830 0.404499 0.010447
-0.097692 -0.374650 -0.012030
-0.113327 0.768631 0.016482
-0.073569 0.708689 0.016482
-0.074029 -0.886455 -0.132050
0.262143 0.751294 0.016482
-0.137694 -0.658298 -0.012029
0.197820 0.503769 -0.092436
0.016256 0.752401 -0.003589
-0.145750 0.087621 0.002317
0.104696 0.579140 0.040060
-0.346959 -0.922798 -0.020017
-0.074578 -0.841131 0.122637
-0.234605 -0.840808 -0.033461
0.258340 0.515961 0.078988
0.275107 0.547414 0.046140
0.255960 0.673881 -0.031022
-0.147034 -0.573460 -0.004521
-0.139907 0.573182 0.015791
0.253922 0.604516 -0.040457
0.282623 0.549815 0.021764
0.100218 0.571140 -0.052221
-0.298553 -0.840818 0.031292
-0.149343 0.726557 -0.010630
-0.375396 -0.923889 0.011587
0.211656 0.545308 0.101037
0.253701 0.484826 0.088723
-0.094754 0.539062 0.016471
0.107264 -0.895044 -0.014383
0.129118 0.603097 -0.074856
-0.114900 -0.840794 0.104781
0.100326 0.604959 0.004799
0.189525 0.590927 -0.080494
-0.137023 -0.856453 0.277634
-0.103160 -0.454348 0.016482
0.117471 0.570175 0.078035
0.167154 0.753280 -0.012032
0.194462 0.691642 0.003460
0.132285 0.515485 0.098020
-0.292587 -0.863483 -0.044281
-0.079437 0.669458 -0.009757
-0.073741 -0.886177 -0.180432
-0.355961 -0.923889 -0.006541
-0.108237 -0.173336 0.016482
-0.087607 -0.623206 0.015251
-0.370278 -0.861841 0.041959
-0.129078 -0.534182 0.016482
0.106650 0.627915 -0.015502
-0.224546 0.666966 -0.012032
0.098537 0.507924 -0.065540
0.270838 0.562856 0.025221
0.033369 0.733846 0.016482
-0.038545 -0.875879 -0.044263
-0.156724 -0.874943 -0.136496
0.212760 0.516642 -0.009398
-0.134508 -0.382897 0.016477
0.148811 -0.908762 -0.044280
-0.096018 -0.887317 -0.029725
-0.127198 0.537280 0.016482
-0.113903 0.020664 -0.012032
-0.133310 -0.840794 -0.156195
-0.123915 -0.093814 0.016482
-0.094090 -0.887317 0.031038
0.265032 0.573023 -0.051178
0.097371 0.577097 -0.006564
0.269007 0.523036 -0.037310
0.109923 -0.850700 0.041885
-0.131913 -0.583830 0.016481
0.277819 0.792135 -0.003843
-0.088590 -0.333824 0.015635
-0.101594 -0.840794 -0.134084
0.073818 0.507585 0.000690
0.273479 0.554974 0.016802
0.208172 0.674895 -0.052366
0.177700 0.607731 -0.018129
-0.141946 0.522799 0.014035
0.267777 0.764407 0.016482
0.250970 0.500671 0.076165
0.003869 0.686869 0.012223
-0.135865 -0.840794 0.195845
-0.142952 0.639438 0.010910
-0.122817 -0.057849 -0.012032
-0.125958 -0.501606 -0.012032
0.239005 0.647578 -0.063978
0.157227 0.483138 0.112371
0.215236 0.462288 -0.101858
0.175726 0.501775 -0.093566
-0.120654 -0.840794 0.038921
0.182600 0.549696 0.105610
-0.072744 -0.842633 -0.119679
-0.134580 -0.026107 -0.012021
-0.342260 -0.904971 0.037414
0.050802 -0.887317 -0.019037
0.271358 0.565288 0.048599
-0.096243 -0.004442 -0.012026
-0.103220 0.489299 -0.012032
-0.087904 -0.791418 -0.010619
-0.142783 0.222052 0.013298
-0.092489 -0.887317 -0.063472
0.055408 -0.843274 -0.043313
0.083578 0.568404 -0.007200
-0.074789 -0.841059 -0.133140
-0.147525 -0.755069 -0.003407
0.121829 0.555950 -0.078024
-0.113131 0.648929 -0.012032
0.071257 0.700079 0.015427
0.073898 0.489090 0.027408
-0.133636 0.622975 -0.012000
-0.156724 -0.856434 -0.085849
-0.086109 0.342372 0.013551
0.006416 -0.840794 -0.006285
0.239486 0.554376 0.075388
-0.103114 0.766977 -0.012032
-0.156724 -0.871407 -0.264451
-0.298946 0.663756 0.016482
0.275817 0.588723 -0.018679
-0.156724 -0.907324 0.260969
-0.084110 -0.481497 0.008702
-0.039288 0.702680 0.016482
-0.374652 -0.923889 -0.031481
-0.116696 -0.362860 0.016482
-0.008827 -0.887317 -0.003335
-0.156724 -0.875063 0.100228
-0.113642 -0.572084 -0.012032
-0.109432 -0.038068 -0.012032
-0.049893 -0.886688 -0.039069
-0.084623 -0.367441 0.009946
0.178459 0.630797 -0.087357
0.103455 0.551627 0.046945
-0.391111 -0.909212 -0.041150
0.131561 0.647927 0.058257
0.202056 0.588930 -0.003636
-0.103806 -0.895546 0.277634
-0.085197 -0.169796 -0.009271
-0.285657 0.644594 0.005536
-0.093827 -0.240060 0.016469
-0.083350 0.323903 0.003192
-0.092424 -0.727904 0.016465
-0.105085 -0.383475 -0.012032
-0.115301 0.047213 -0.012032
-0.074532 -0.922825 -0.238070
-0.023788 -0.887317 -0.028852
0.010439 -0.887317 -0.016439
0.074460 0.696492 -0.001721
-0.158803 -0.839303 0.003180
0.212910 0.551450 0.024051
0.107564 -0.879183 0.041892
-0.140299 -0.414188 0.016014
-0.081143 -0.899424 0.224383
-0.126462 -0.840794 0.101540
-0.146144 -0.084012 0.002032
0.217114 0.733090 0.016480
-0.083350 -0.777964 0.002070
-0.384131 -0.840889 -0.019377
-0.100992 0.365548 -0.012032
-0.098490 -0.723547 -0.012031
0.244240 0.571248 -0.074171
0.155878 0.636875 0.077492
0.137667 0.584186 -0.068243
-0.156724 -0.852147 -0.263823
-0.150534 -0.908153 -0.230558
-0.113907 -0.887317 0.085224
-0.338118 -0.850212 -0.044153
-0.143610 0.652897 0.015440
-0.101503 -0.887317 -0.198185
0.228360 0.505357 -0.095487
-0.166632 -0.840794 0.018834
-0.148989 -0.841138 0.088603
-0.120769 0.479117 0.016482
-0.071963 -0.838920 0.006870
-0.073627 -0.886067 -0.073787
0.042297 -0.887317 0.021255
-0.138267 -0.144357 -0.012016
-0.071783 -0.843804 -0.246553
-0.339880 -0.841426 0.039053
0.295658 0.748247 -0.011982
0.188861 0.731501 0.016482
0.254664 0.548168 -0.069918
-0.083350 -0.790180 0.004372
0.111202 0.634326 -0.051458
-0.102655 -0.887317 0.131453
0.258160 0.674690 -0.008790
-0.139103 -0.840794 0.235680
-0.084921 -0.202069 -0.008715
0.294370 0.736426 -0.010118
-0.191350 0.721053 -0.002215
0.139773 0.480124 0.106843
0.190148 0.556412 -0.097809
-0.086311 -0.709293 -0.009826
-0.096229 0.210935 -0.012026
0.248800 0.664699 0.056283
-0.115930 -0.887317 0.154301
-0.156724 -0.871496 -0.084133
0.069830 -0.880959 0.041738
-0.146019 -0.235783 -0.003649
-0.272008 0.687380 -0.012032
-0.084448 0.685636 -0.012031
0.186714 0.567219 0.030933
0.109408 0.611181 -0.030331
0.114776 0.483705 0.091909
0.170630 0.718285 0.016195
0.122932 -0.923393 0.008842
-0.127978 -0.317654 -0.012032
-0.120804 0.694573 -0.012032
0.105477 -0.872289 -0.044281
-0.208582 -0.841945 0.039597
-0.142632 0.689149 -0.012032
-0.103062 0.013059 -0.012032
-0.142735 0.398751 -0.009515
-0.105992 0.423649 -0.012032
-0.088505 -0.574296 0.015602
-0.144357 -0.721636 0.015195
0.285785 0.486447 -0.038087
-0.147638 -0.735711 0.000560
0.197827 0.572644 -0.015997
0.217658 0.660829 0.035457
-0.108764 -0.229620 0.016482
-0.146282 -0.144669 0.006550
0.251473 0.607668 0.066054
-0.143480 0.611495 -0.006257
-0.148599 -0.841075 -0.072731
-0.076956 -0.923697 -0.254438
-0.134207 -0.887317 0.159867
-0.093610 -0.371207 0.016468
-0.142558 0.587350 0.012181
-0.142766 -0.915122 -0.279950
-0.070484 -0.855595 -0.243813
0.256748 0.651833 -0.006524
-0.142324 -0.125959 0.015119
-0.089138 -0.887317 -0.153809
-0.208634 -0.887317 0.019803
-0.321224 0.657892 0.011708
-0.101010 0.788510 0.005273
0.134890 0.642467 -0.055317
0.163128 0.679627 0.010657
0.258735 0.502109 -0.075165
-0.142944 -0.110311 0.014779
-0.050667 0.706984 0.016482
0.008965 -0.871133 0.041959
-0.102212 -0.221595 -0.012032
-0.129237 -0.340786 0.016482
0.076818 0.528182 0.001702
-0.180901 -0.869020 0.041959
0.268553 0.464076 0.065169
0.283896 0.498688 -0.037627
-0.083629 0.108156 -0.002502
-0.101809 -0.840794 0.036048
0.256793 0.589001 -0.058032
-0.142658 -0.887317 0.131745
-0.125503 -0.838652 0.025105
-0.113218 0.101980 -0.012032
0.054529 -0.884574 0.040633
-0.124338 -0.105505 0.016482
-0.083350 -0.043895 0.003419
0.115949 -0.887321 0.041846
-0.090808 0.591159 -0.012013
-0.128750 0.655373 0.016482
0.165376 0.580035 -0.080401
0.258099 0.658593 0.044079
-0.070484 -0.852410 -0.211541
0.197473 0.674895 -0.046952
-0.087944 -0.840794 0.046190
-0.123250 -0.018001 0.016482
0.253023 0.600369 0.051223
-0.119313 -0.276667 0.016482
-0.072282 -0.843011 -0.201612
0.114348 -0.906481 -0.013799
-0.094814 -0.840794 -0.146886
-0.097580 -0.840794 -0.212122
-0.146224 -0.119391 0.004298
-0.114891 -0.750016 0.016481
0.265629 0.726049 -0.001084
0.066660 -0.841188 0.036928
-0.118703 -0.524996 0.016482
0.107738 0.489497 0.069284
-0.119691 -0.435285 -0.012032
-0.083397 -0.840522 -0.024543
-0.097773 0.485890 0.016479
-0.147139 -0.887317 -0.034717
0.295395 0.735780 0.001285
0.104067 0.594694 0.032556
-0.164084 0.720241 0.016188
0.103539 0.621363 -0.003200
0.231840 0.660829 -0.001530
0.141981 0.498129 -0.098939
-0.080519 -0.865363 0.277412
0.101118 0.599115 0.019715
0.102107 0.504066 0.058448
-0.143197 -0.501238 0.015213
-0.086116 0.423503 0.013567
-0.064203 -0.870387 -0.053183
0.096128 -0.870225 0.041959
-0.114734 -0.840794 -0.243329
-0.130403 -0.370012 0.016482
-0.070484 -0.856731 0.210508
0.197005 0.618579 0.084203
-0.086499 -0.147071 0.014498
0.207173 0.636726 0.079001
0.268074 0.579373 0.025070
-0.084330 0.309056 -0.005873
0.274901 0.516649 0.034111
-0.141987 -0.839205 -0.021553
0.073998 -0.887317 -0.022370
0.190754 0.777459 -0.010935
0.163558 0.604577 0.095250
-0.127999 0.360619 0.016482
-0.104557 0.311403 0.016482
-0.392351 -0.851148 0.008811
0.140598 0.767003 -0.011739
0.282481 0.548961 -0.017687
0.148532 0.595012 -0.072331
-0.057988 0.715873 -0.012032
0.092666 0.707722 -0.011958
-0.141154 0.242843 -0.010622
0.087721 0.575594 0.030811
-0.083350 -0.158443 0.000195
-0.084538 0.211555 -0.006876
-0.139610 0.599301 0.015948
0.092920 0.584588 0.040368
-0.083350 0.074471 0.000494
-0.066518 0.698074 0.016482
0.262515 0.503062 0.077555
0.159161 0.508922 -0.089701
-0.106431 -0.840794 -0.258758
-0.240664 0.699711 0.016480
0.130356 0.517747 -0.090525
0.093519 0.738521 0.016481
-0.135634 -0.887317 0.141001
0.031668 -0.872573 0.041959
0.152621 0.774020 0.001564
0.172115 0.695264 0.011558
0.062183 -0.867261 0.041959
-0.117260 0.035086 -0.012032
-0.070484 -0.864981 -0.114222
-0.161660 0.660614 0.005240
0.102329 0.515513 0.055961
-0.095842 -0.528033 -0.012025
-0.031353 0.693005 -0.012031
-0.155293 -0.884866 0.141819
-0.144976 -0.029322 -0.006022
-0.105716 -0.111755 -0.012032
-0.101382 0.101487 -0.012032
-0.086544 0.530258 0.014607
-0.198983 -0.848405 0.041632
0.076289 0.461896 -0.030488
-0.083350 -0.406730 0.002931
-0.083350 0.564164 0.001554
-0.206382 -0.860438 0.041959
-0.110180 -0.887317 -0.032718
0.072955 0.493921 -0.010412
0.248632 0.767970 0.016482
0.263317 0.623623 -0.039404
0.076445 -0.840794 -0.027736
-0.090899 0.630838 0.016461
-0.112179 -0.338825 0.016482
0.046810 0.757376 0.005838
-0.191149 0.690253 0.016482
0.110621 0.552875 -0.049161
-0.128212 0.244311 0.016482
-0.147060 -0.483455 0.001396
-0.155907 -0.884082 0.108051
-0.271027 -0.840893 -0.034749
0.170351 0.494797 0.102572
0.152097 -0.923260 0.037914
0.241539 0.547601 0.086648
-0.083524 0.338537 -0.001997
0.087505 0.499339 0.025474
0.172957 0.660396 0.040553
-0.132346 -0.840794 0.166890
-0.313329 0.699143 0.012320
-0.239888 0.676798 -0.012032
-0.130566 -0.887317 -0.102635
0.276739 0.524505 0.023624
-0.084451 -0.720730 -0.006458
-0.145149 0.349392 0.003378
-0.142342 -0.039791 -0.010205
-0.070492 -0.914027 0.264037
-0.075327 -0.841041 -0.186008
0.221864 0.674895 -0.031803
0.246365 0.565984 0.079383
0.118678 0.674895 0.030927
0.177482 0.745247 0.016482
0.111683 0.461302 -0.080599
-0.156148 -0.909780 -0.274779
-0.281218 0.708892 -0.000754
-0.144642 -0.887356 -0.206670
-0.096935 0.714970 0.016482
0.090284 0.509960 0.030717
0.240100 0.777161 0.016450
0.110715 0.628239 -0.027104
-0.131128 -0.149107 0.016481
-0.117950 -0.887317 0.114351
0.266640 0.602137 0.012523
-0.049814 -0.842209 0.039874
0.155947 0.586053 -0.090320
0.123644 0.584216 -0.074202
0.119287 -0.874715 0.041959
0.188742 0.540415 -0.088028
-0.070484 -0.890285 0.246612
-0.116334 -0.887317 0.127232
-0.076871 -0.840989 0.078739
-0.137704 -0.923766 0.237889
-0.131303 -0.325901 0.016481
-0.095930 0.269118 0.016474
-0.390395 -0.843126 0.024297
-0.147612 -0.724252 -0.000009
0.136135 -0.895845 0.041959
-0.099591 0.227106 0.016482
0.285585 0.500087 0.038295
0.148297 0.499432 0.096265
-0.289614 -0.887317 0.008364
-0.067532 -0.868771 0.054855
-0.156282 -0.846057 0.159982
-0.170237 -0.887317 0.026478
-0.048596 -0.840794 -0.006340
-0.146117 -0.072275 0.004028
0.180978 0.544649 0.043013
-0.128078 0.137401 -0.012032
0.268491 0.751502 -0.012032
0.074405 -0.887317 0.012068
0.086256 0.580402 0.018563
-0.083350 -0.506092 0.003128
0.147715 0.462066 -0.098464
0.161492 0.617545 -0.073731
-0.121605 0.185203 0.016481
0.273602 0.488891 -0.039470
-0.070491 -0.911613 -0.241647
-0.390573 -0.906711 0.039352
-0.106029 0.753733 0.016482
-0.392399 -0.906792 0.010545
0.208712 0.499189 -0.091179
-0.099124 -0.840794 -0.249673
-0.155344 -0.884801 -0.156779
-0.145811 0.061169 0.002165
0.096078 0.556337 0.025531
0.149326 0.552851 0.022257
-0.108970 0.348497 0.016482
0.261403 0.524331 0.058670
0.162982 -0.843251 -0.020861
-0.106411 0.561715 0.016482
-0.087160 0.366701 0.015077
0.277754 0.727990 0.005683
-0.001973 -0.874729 -0.044281
0.135564 0.545683 0.082411
-0.144656 0.564876 0.002408
-0.010813 0.683829 0.008078
0.118165 0.604834 -0.046518
0.263809 0.637464 -0.033216
0.081005 0.468979 -0.007794
-0.144593 0.591665 0.001791
0.176458 0.614876 0.095398
-0.218624 -0.840794 0.003282
0.267551 0.659033 0.014638
0.124755 -0.923743 -0.021532
0.061359 -0.887317 -0.004767
-0.047928 -0.840794 -0.030623
-0.130956 -0.175373 -0.012032
-0.139918 0.492394 -0.011249
-0.083437 0.645365 -0.001579
-0.124250 -0.738887 -0.012032
0.123954 0.703974 0.012255
0.231778 0.674895 0.019509
-0.119493 -0.013733 -0.012032
0.257395 0.584337 0.064514
0.106447 0.532519 -0.069178
-0.108246 0.391058 -0.012032
0.203036 0.546983 -0.028522
0.242105 0.653722 0.066074
-0.112919 -0.781935 0.016482
-0.237985 -0.866484 -0.044281
-0.305159 -0.881465 0.041718
0.289576 0.788676 0.000797
-0.142414 0.154068 0.014525
0.265945 0.612464 -0.037493
-0.134368 0.697614 -0.012032
0.089405 -0.859068 0.041959
-0.133805 0.780709 0.014820
0.198951 0.598284 -0.010096
-0.101535 -0.525477 0.016482
0.094416 0.647455 0.005743
-0.122608 0.702234 0.016482
-0.156724 -0.855577 -0.200144
-0.085936 0.072963 0.013131
-0.144418 -0.185327 -0.009360
-0.272206 -0.887317 -0.021404
-0.146170 -0.900188 -0.279956
-0.105257 -0.576653 0.016482
-0.248145 0.660203 -0.012020
-0.143417 0.080974 0.012497
-0.144406 -0.321400 -0.009573
-0.142621 0.172614 0.013933
-0.167046 0.664624 0.016093
-0.070484 -0.859316 0.258111
-0.113850 -0.767187 0.016482
0.263618 0.625741 0.015595
-0.141767 -0.427446 -0.010818
-0.098262 -0.566210 -0.012031
-0.085013 0.433151 -0.009161
0.146598 -0.902172 0.041959
0.196625 0.573448 0.100039
0.145718 0.551836 0.097882
0.135442 -0.840794 -0.002499
0.095939 0.543684 -0.023244
0.226084 0.674825 0.059221
0.175100 0.661910 -0.082389
-0.147019 -0.465832 0.003653
0.151778 0.474955 -0.106230
-0.103817 -0.071359 -0.012032
-0.121989 0.490405 -0.012032
-0.125604 -0.119322 0.016482
-0.103955 -0.456357 -0.012032
-0.227734 -0.846407 -0.043735
-0.277648 -0.887317 0.028751
-0.132169 0.078992 0.016476
0.085928 0.501520 -0.003961
-0.083350 -0.576207 0.002780
0.032576 -0.886636 -0.039551
0.260246 0.504452 0.065177
-0.230000 -0.887317 0.017029
-0.099971 -0.854095 0.277634
0.170407 0.549352 0.039999
-0.065905 -0.884107 0.044660
0.278229 0.738828 -0.012030
-0.112161 -0.053635 -0.012032
0.197247 0.674895 -0.034980
-0.086538 -0.491020 0.014591
-0.117286 0.254428 0.016482
-0.075746 -0.839783 0.025360
-0.131339 -0.083336 -0.012031
0.190198 0.677020 -0.018994
-0.105173 -0.443890 -0.012032
0.238418 0.513847 0.083793
0.258857 0.773111 0.016482
-0.122298 0.318315 -0.012032
0.240963 0.479993 -0.093025
-0.121649 0.643740 0.016482
-0.137602 -0.531865 -0.012028
-0.144899 0.458504 0.001585
0.244813 0.568709 0.068147
-0.113919 0.414104 0.016482
-0.165611 -0.887317 -0.003258
0.202213 0.543116 0.037117
-0.107663 -0.827630 0.017422
-0.128768 0.621261 0.016482
-0.110458 -0.840794 0.193712
-0.117323 -0.781779 -0.012032
-0.083350 -0.280244 0.004139
0.205488 0.512664 -0.090114
0.118404 0.526211 -0.064164
-0.143781 0.256537 -0.008234
-0.156724 -0.874362 -0.117976
0.142439 0.626789 -0.064084
-0.091678 -0.660827 -0.012015
0.110260 0.511249 0.067334
-0.144174 -0.171753 0.012194
0.112199 0.737851 -0.012032
0.184984 0.674885 0.077454
0.274382 0.575580 0.036728
0.242719 0.674895 0.027873
-0.084670 -0.604526 -0.007508
0.166047 0.728574 -0.012032
-0.083350 -0.420723 0.003891
-0.102705 0.674689 -0.012032
-0.111824 -0.606029 -0.012032
0.231209 0.596693 -0.078868
-0.142527 -0.887317 -0.128133
-0.146692 -0.375215 -0.001896
-0.083057 -0.887317 -0.022586
-0.100051 0.142425 -0.012032
0.150741 0.472842 0.112217
0.150007 0.754445 -0.012032
0.289619 0.492742 -0.024942
-0.263297 -0.843779 -0.043446
0.148879 0.581914 -0.074597
-0.362594 -0.842506 -0.042508
0.181015 0.643950 0.081106
-0.123820 -0.791838 -0.012032
-0.081769 0.741191 -0.010767
-0.140609 -0.512747 0.015964
-0.322102 -0.875507 -0.044278
-0.102493 0.675373 0.016482
-0.083565 0.655462 0.007379
0.210507 0.626478 -0.083381
0.108311 -0.895994 -0.025846
-0.121694 -0.172091 0.016482
0.098251 -0.840794 0.021277
0.093472 0.548807 -0.009465
0.187549 0.644417 0.091178
-0.102606 0.729766 0.016482
0.201106 0.771514 -0.012000
0.069078 -0.840794 0.023854
-0.131273 0.786102 -0.001518
-0.101951 -0.840794 -0.107533
-0.311984 -0.864246 0.041959
-0.074062 -0.886486 -0.199832
0.182708 0.629011 0.092994
0.083556 0.573765 0.008266
-0.336170 -0.895937 0.011300
0.148698 0.590832 0.081882
0.137866 0.563107 0.080786
0.173254 0.706820 0.012968
0.199964 0.546829 0.094375
0.087815 0.489261 0.061679
0.207814 0.735633 -0.012032
-0.080005 -0.890541 0.277359
0.067814 0.718762 -0.012032
-0.091911 0.741893 0.016469
-0.144909 -0.856906 -0.279956
-0.133898 -0.032642 0.016472
0.282699 0.774782 -0.012032
-0.094531 0.304625 -0.012022
0.208614 0.588123 -0.089983
-0.143131 -0.350600 -0.010169
0.158812 0.544884 -0.097264
0.274452 0.501502 0.041653
0.195503 0.683597 -0.007080
-0.191383 -0.887317 0.003245
-0.090826 -0.594249 -0.012013
0.163636 0.708079 -0.007415
-0.110221 -0.887317 0.170714
0.228493 0.628964 0.081064
0.081418 0.469982 0.017158
0.043037 -0.887017 0.033702
0.105305 0.513732 -0.051603
-0.086031 0.000785 -0.009686
-0.036304 -0.886518 -0.040641
0.248707 0.519379 0.086240
0.215735 0.648063 -0.063527
0.122110 0.612119 -0.067766
0.135049 0.534105 0.084214
-0.342023 -0.908079 -0.015855
0.103887 0.530435 0.054299
-0.105873 -0.217464 0.016482
-0.075014 -0.887075 0.084526
-0.222572 0.716007 -0.007594
0.210147 0.589140 -0.076657
-0.073503 -0.885947 0.142387
-0.126096 -0.192422 -0.012032
-0.103427 0.741387 0.016482
0.227315 0.660529 -0.033807
-0.246841 0.671657 0.016482
-0.379819 -0.840802 0.027877
0.282881 0.752252 0.016481
-0.097223 -0.537836 0.016478
-0.109140 -0.882046 0.277634
-0.102448 -0.018737 0.016482
-0.220650 0.688698 -0.012032
-0.172592 0.710271 0.016481
-0.095273 -0.887317 -0.008559
0.246337 0.652552 -0.033350
0.230350 0.481814 -0.085468
-0.091662 0.492723 -0.012015
-0.061537 -0.886936 -0.041082
-0.143615 -0.220805 0.013932
-0.083933 -0.587815 -0.003966
0.112954 -0.902814 0.022464
0.199767 0.630205 -0.085664
-0.091525 -0.675103 0.016463
-0.378965 -0.913062 0.041956
-0.144909 -0.887317 0.023805
0.113080 0.605852 -0.060340
-0.130361 -0.074741 0.016482
-0.115964 -0.071671 -0.012032
-0.130325 -0.899436 -0.226520
-0.110907 -0.340569 -0.012032
-0.131993 -0.275029 0.016480
-0.109251 0.244463 0.016482
-0.238710 -0.850929 -0.044232
0.177455 0.462704 -0.107542
0.176786 0.533481 -0.089005
0.187516 0.575780 0.091599
-0.009058 0.691180 -0.011940
-0.143088 -0.272809 0.014991
0.126466 -0.840794 0.009916
0.204519 0.650656 -0.000018
-0.097499 -0.840794 0.064965
-0.098049 0.038860 0.016480
0.227701 0.673877 -0.063348
0.264196 0.643445 0.036047
-0.145616 -0.667163 0.014304
-0.146461 -0.690455 0.013027
0.261981 0.484298 -0.075841
0.173888 0.516667 0.036640
-0.016619 -0.887317 -0.015430
0.062896 0.694761 -0.001219
-0.140732 -0.923889 -0.260316
-0.165536 0.723181 -0.009550
-0.156724 -0.859472 -0.188051
0.231855 0.495352 0.100613
-0.135135 -0.778271 -0.012031
-0.132843 -0.888942 0.211732
-0.071414 -0.845956 0.151800
-0.145065 0.334790 -0.001690
-0.098696 -0.893170 -0.279956
-0.083933 0.763951 0.007613
-0.152274 0.655339 0.000472
0.280224 0.520394 0.044577
-0.122653 -0.330934 -0.012032
-0.088597 0.004042 0.015638
0.268098 0.662518 -0.001174
0.007928 0.703170 -0.012032
-0.140798 0.374941 -0.010748
-0.121042 0.066268 0.016482
-0.128350 0.775574 -0.012031
-0.104540 -0.099879 0.016482
-0.091433 -0.191485 -0.012014
-0.127002 0.464962 -0.012032
-0.069784 -0.887317 0.031310
0.080030 0.462312 0.037569
-0.115256 -0.907384 -0.229460
-0.087993 0.068294 -0.010663
0.100001 -0.889555 -0.031646
-0.115662 -0.098968 -0.012032
-0.180237 -0.887317 0.006391
-0.100638 0.070148 -0.012032
0.160190 0.589848 -0.001390
-0.138369 -0.525143 0.016476
0.231890 0.608049 -0.062576
-0.134071 0.644696 0.016441
-0.091582 -0.840794 0.200011
-0.076951 -0.905789 -0.279368
-0.165380 -0.840794 -0.021675
-0.142294 -0.923876 0.265026
-0.096044 -0.090541 0.016475
-0.131645 -0.761006 -0.012032
-0.089531 -0.331359 -0.011429
0.224947 0.543503 0.086610
-0.142151 0.623413 0.013093
-0.148560 0.703997 -0.012032
-0.121710 -0.412354 0.016482
0.260560 0.639904 0.016319
-0.144083 0.100597 -0.008560
-0.142619 -0.157152 -0.010187
-0.127381 -0.914178 0.277629
0.090478 0.607425 -0.016063
-0.145681 -0.562945 -0.009461
0.160877 0.511296 -0.102644
-0.128407 -0.887317 0.193612
0.236220 0.540076 -0.071768
-0.122259 -0.896517 0.221578
-0.070709 -0.862885 0.271747
-0.120714 -0.840794 0.223587
0.288028 0.527463 -0.001968
-0.083350 0.606262 0.001400
0.096327 0.645364 -0.016898
-0.319662 -0.864140 -0.044281
-0.097140 -0.176855 0.016477
0.286826 0.526658 0.016936
-0.145991 -0.222020 -0.003600
-0.100299 -0.323077 0.016482
-0.084260 0.274678 -0.005539
-0.156556 -0.849360 -0.238793
-0.128974 0.550241 0.016482
-0.130170 0.451767 -0.012032
-0.114526 0.141276 -0.012032
-0.236793 0.664447 -0.012031
0.104531 0.583776 -0.054963
0.091887 0.473757 0.071047
-0.050542 0.742062 0.005303
-0.087363 0.480942 0.015156
0.219230 0.548145 -0.003921
0.131823 0.674895 0.003382
-0.071215 -0.847115 -0.149535
-0.155465 -0.860097 -0.276025
-0.190061 -0.856997 -0.044281
-0.141679 0.197814 0.015111
-0.276759 -0.884516 -0.043008
-0.144699 0.447497 -0.002191
0.108085 0.635574 0.053009
0.171766 0.716768 -0.011466
0.206109 0.560610 0.025547
-0.153968 -0.840776 -0.026361
-0.098489 0.085592 0.016481
0.137841 0.464129 -0.089663
-0.144744 0.526469 -0.000340
0.028826 -0.876871 -0.044224
-0.097309 -0.609630 -0.012029
0.199275 0.580007 -0.093204
0.176903 0.504959 -0.018698
-0.341872 -0.907286 0.002696
0.249053 0.501755 -0.083290
0.085000 -0.875103 0.041959
-0.123178 -0.887317 -0.152923
0.181505 0.586572 -0.094234
-0.336542 -0.877690 0.041869
-0.099583 0.114585 0.016482
0.197972 0.554265 0.103140
-0.013073 0.710217 0.016482
0.254623 0.530649 -0.057252
-0.070484 -0.868300 0.100450
0.265235 0.602267 -0.014052
0.280432 0.482112 0.035734
0.224077 0.742676 -0.012032
-0.105772 -0.840794 0.149346
-0.085656 -0.887317 0.076590
-0.121408 -0.409531 -0.012032
0.174166 0.674895 0.036503
0.071996 0.496279 0.004060
0.075736 0.515837 0.013450
0.278321 0.465498 0.048049
0.097450 0.527531 -0.033852
0.095125 0.580184 -0.041483
0.279730 0.580074 0.010140
0.039816 -0.855011 -0.044281
-0.070484 -0.899920 0.255016
0.165191 -0.854229 0.030433
0.244080 0.461951 0.094891
0.178911 0.702713 -0.006853
0.285297 0.464791 -0.019767
-0.094405 -0.923852 0.267722
-0.122887 -0.893376 -0.279956
0.084523 0.696170 0.004614
0.133959 0.674895 -0.039492
-0.097978 0.067996 0.016480
-0.090445 -0.026203 0.016360
0.251300 0.755112 -0.012032
0.229095 0.558063 -0.086755
0.178269 0.484895 0.114793
0.115715 0.541376 0.082096
-0.146350 -0.840794 0.214643
-0.142264 -0.346161 0.015343
-0.074699 0.742681 0.000635
0.217785 0.500238 -0.100484
-0.058637 -0.872084 0.044930
0.188159 0.489614 -0.095591
0.219970 0.507605 0.094552
0.137512 0.660650 0.034010
0.193672 0.649294 -0.083683
0.114225 -0.840794 -0.021119
-0.141668 -0.260228 0.015472
-0.085674 -0.050411 0.012496
0.253961 0.475488 -0.069834
-0.315603 0.684623 -0.012024
